-0.193372 -0.148204 -0.103037 -0.0578688 -0.012701 0.0324668 0.0776345 0.122802 0.16797 0.213138 0.258306 0.303473 0.348641 0.393809 0.438977 0.484145 0.529312 0.57448 0.619648 0.664816 0.709983 0.755151 0.800319 0.845487 0.890655 0.935822 0.98099 1.02616 1.07133 1.11649 1.16166 1.20683 1.252 1.29716 1.34233 1.3875 1.43267 1.47784 1.523 1.56817 1.61334 1.65851 1.70367 1.74884 1.79401 1.83918 1.88435 1.92951 1.97468 2.01985 2.06502 2.11018 2.15535 2.20052 2.24569 2.29086 2.33602 2.38119 2.42636 2.47153 2.51669 2.56238 2.60806 2.65374 2.69942 2.7451 2.79078 2.83647 2.88215 2.92783 2.97351 3.01919 3.06487 3.11056 3.15624 3.20192 3.2476 3.29328 3.33896 3.38464 3.43033 3.47601 3.52169 3.56737 3.61305 3.65873 3.70442 3.7501 3.79578 3.84146 3.88714 3.93282 3.97851 4.02419 4.06987 4.11555 4.16123 4.20691 4.2526 4.29828 4.34396 4.38964 4.43532 4.481 4.52668 4.57237 4.61805 4.66373 4.70941 4.75509 4.80077 4.84646 4.89214 4.93782 4.9835 5.02918 5.07486 5.12055 5.16623 5.21191 5.25759 5.30368 5.34977 5.39586 5.44195 5.48804 5.53413 5.58022 5.6263 5.67239 5.71848 5.76457 5.81066 5.85675 5.90284 5.94893 5.99502 6.04111 6.0872 6.13329 6.17938 6.22547 6.27155 6.31764 6.36373 6.40982 6.45591 6.502 6.54809 6.59418 6.64027 6.68636 6.73245 6.77854 6.82463 6.87071 6.9168 6.96289 7.00898 7.05507 7.10116 7.14725 7.19334 7.23943 7.28552 7.33161 7.3777 7.42379 7.46988 7.51596 7.56205 7.60814 7.65423 7.70032 7.74641 7.7925 7.83859 7.88468 7.93077 7.97686
-0.183062 -0.137805 -0.0925493 -0.0472932 -0.00203716 0.0432189 0.088475 0.133731 0.178987 0.224243 0.269499 0.314755 0.360012 0.405268 0.450524 0.49578 0.541036 0.586292 0.631548 0.676804 0.72206 0.767316 0.812572 0.857829 0.903085 0.948341 0.993597 1.03885 1.08411 1.12937 1.17462 1.21988 1.26513 1.31039 1.35565 1.4009 1.44616 1.49141 1.53667 1.58193 1.62718 1.67244 1.71769 1.76295 1.80821 1.85346 1.89872 1.94397 1.98923 2.03449 2.07974 2.125 2.17026 2.21551 2.26077 2.30602 2.35128 2.39654 2.44179 2.48705 2.5323 2.578 2.6237 2.66939 2.71509 2.76079 2.80648 2.85218 2.89788 2.94357 2.98927 3.03497 3.08066 3.12636 3.17206 3.21775 3.26345 3.30915 3.35484 3.40054 3.44624 3.49193 3.53763 3.58333 3.62902 3.67472 3.72041 3.76611 3.81181 3.8575 3.9032 3.9489 3.99459 4.04029 4.08599 4.13168 4.17738 4.22308 4.26877 4.31447 4.36017 4.40586 4.45156 4.49726 4.54295 4.58865 4.63435 4.68004 4.72574 4.77144 4.81713 4.86283 4.90853 4.95422 4.99992 5.04562 5.09131 5.13701 5.18271 5.2284 5.2741 5.32009 5.36608 5.41207 5.45806 5.50405 5.55004 5.59603 5.64202 5.68801 5.734 5.77999 5.82598 5.87197 5.91796 5.96394 6.00993 6.05592 6.10191 6.1479 6.19389 6.23988 6.28587 6.33186 6.37785 6.42384 6.46983 6.51582 6.56181 6.6078 6.65379 6.69978 6.74577 6.79176 6.83775 6.88374 6.92973 6.97572 7.02171 7.0677 7.11369 7.15968 7.20567 7.25166 7.29765 7.34364 7.38963 7.43562 7.48161 7.5276 7.57359 7.61958 7.66557 7.71156 7.75755 7.80353 7.84952 7.89551 7.9415 7.98749
-0.172751 -0.127407 -0.0820621 -0.0367177 0.0086267 0.0539711 0.0993155 0.14466 0.190004 0.235349 0.280693 0.326038 0.371382 0.416726 0.462071 0.507415 0.55276 0.598104 0.643448 0.688793 0.734137 0.779482 0.824826 0.87017 0.915515 0.960859 1.0062 1.05155 1.09689 1.14224 1.18758 1.23293 1.27827 1.32361 1.36896 1.4143 1.45965 1.50499 1.55034 1.59568 1.64103 1.68637 1.73171 1.77706 1.8224 1.86775 1.91309 1.95844 2.00378 2.04912 2.09447 2.13981 2.18516 2.2305 2.27585 2.32119 2.36654 2.41188 2.45722 2.50257 2.54791 2.59362 2.63934 2.68505 2.73076 2.77647 2.82218 2.86789 2.91361 2.95932 3.00503 3.05074 3.09645 3.14216 3.18788 3.23359 3.2793 3.32501 3.37072 3.41643 3.46214 3.50786 3.55357 3.59928 3.64499 3.6907 3.73641 3.78213 3.82784 3.87355 3.91926 3.96497 4.01068 4.05639 4.10211 4.14782 4.19353 4.23924 4.28495 4.33066 4.37638 4.42209 4.4678 4.51351 4.55922 4.60493 4.65064 4.69636 4.74207 4.78778 4.83349 4.8792 4.92491 4.97063 5.01634 5.06205 5.10776 5.15347 5.19918 5.2449 5.29061 5.3365 5.38239 5.42828 5.47417 5.52006 5.56595 5.61184 5.65773 5.70362 5.74951 5.7954 5.84129 5.88718 5.93307 5.97896 6.02485 6.07074 6.11663 6.16252 6.20841 6.2543 6.30019 6.34608 6.39197 6.43786 6.48375 6.52964 6.57553 6.62142 6.66731 6.7132 6.75909 6.80498 6.85087 6.89676 6.94266 6.98855 7.03444 7.08033 7.12622 7.17211 7.218 7.26389 7.30978 7.35567 7.40156 7.44745 7.49334 7.53923 7.58512 7.63101 7.6769 7.72279 7.76868 7.81457 7.86046 7.90635 7.95224 7.99813
-0.16244 -0.117008 -0.0715749 -0.0261422 0.0192906 0.0647233 0.110156 0.155589 0.201021 0.246454 0.291887 0.33732 0.382752 0.428185 0.473618 0.51905 0.564483 0.609916 0.655349 0.700781 0.746214 0.791647 0.837079 0.882512 0.927945 0.973378 1.01881 1.06424 1.10968 1.15511 1.20054 1.24597 1.29141 1.33684 1.38227 1.4277 1.47314 1.51857 1.564 1.60944 1.65487 1.7003 1.74573 1.79117 1.8366 1.88203 1.92746 1.9729 2.01833 2.06376 2.1092 2.15463 2.20006 2.24549 2.29093 2.33636 2.38179 2.42722 2.47266 2.51809 2.56352 2.60925 2.65498 2.7007 2.74643 2.79216 2.83788 2.88361 2.92933 2.97506 3.02079 3.06651 3.11224 3.15797 3.20369 3.24942 3.29515 3.34087 3.3866 3.43233 3.47805 3.52378 3.56951 3.61523 3.66096 3.70669 3.75241 3.79814 3.84387 3.88959 3.93532 3.98105 4.02677 4.0725 4.11822 4.16395 4.20968 4.2554 4.30113 4.34686 4.39258 4.43831 4.48404 4.52976 4.57549 4.62122 4.66694 4.71267 4.7584 4.80412 4.84985 4.89558 4.9413 4.98703 5.03276 5.07848 5.12421 5.16994 5.21566 5.26139 5.30711 5.35291 5.3987 5.44449 5.49028 5.53607 5.58186 5.62765 5.67344 5.71923 5.76502 5.81081 5.8566 5.90239 5.94818 5.99398 6.03977 6.08556 6.13135 6.17714 6.22293 6.26872 6.31451 6.3603 6.40609 6.45188 6.49767 6.54346 6.58925 6.63505 6.68084 6.72663 6.77242 6.81821 6.864 6.90979 6.95558 7.00137 7.04716 7.09295 7.13874 7.18453 7.23033 7.27612 7.32191 7.3677 7.41349 7.45928 7.50507 7.55086 7.59665 7.64244 7.68823 7.73402 7.77981 7.8256 7.8714 7.91719 7.96298 8.00877
-0.15213 -0.106609 -0.0610876 -0.0155666 0.0299544 0.0754754 0.120996 0.166517 0.212039 0.25756 0.303081 0.348602 0.394123 0.439644 0.485165 0.530686 0.576207 0.621728 0.667249 0.71277 0.758291 0.803812 0.849333 0.894854 0.940375 0.985896 1.03142 1.07694 1.12246 1.16798 1.2135 1.25902 1.30454 1.35006 1.39559 1.44111 1.48663 1.53215 1.57767 1.62319 1.66871 1.71423 1.75975 1.80527 1.8508 1.89632 1.94184 1.98736 2.03288 2.0784 2.12392 2.16944 2.21496 2.26048 2.30601 2.35153 2.39705 2.44257 2.48809 2.53361 2.57913 2.62487 2.67062 2.71636 2.7621 2.80784 2.85358 2.89932 2.94506 2.99081 3.03655 3.08229 3.12803 3.17377 3.21951 3.26525 3.311 3.35674 3.40248 3.44822 3.49396 3.5397 3.58545 3.63119 3.67693 3.72267 3.76841 3.81415 3.85989 3.90564 3.95138 3.99712 4.04286 4.0886 4.13434 4.18009 4.22583 4.27157 4.31731 4.36305 4.40879 4.45453 4.50028 4.54602 4.59176 4.6375 4.68324 4.72898 4.77472 4.82047 4.86621 4.91195 4.95769 5.00343 5.04917 5.09492 5.14066 5.1864 5.23214 5.27788 5.32362 5.36931 5.41501 5.4607 5.50639 5.55208 5.59777 5.64346 5.68915 5.73484 5.78053 5.82623 5.87192 5.91761 5.9633 6.00899 6.05468 6.10037 6.14606 6.19176 6.23745 6.28314 6.32883 6.37452 6.42021 6.4659 6.51159 6.55729 6.60298 6.64867 6.69436 6.74005 6.78574 6.83143 6.87712 6.92282 6.96851 7.0142 7.05989 7.10558 7.15127 7.19696 7.24265 7.28834 7.33404 7.37973 7.42542 7.47111 7.5168 7.56249 7.60818 7.65387 7.69957 7.74526 7.79095 7.83664 7.88233 7.92802 7.97371 8.0194
-0.141819 -0.0962098 -0.0506004 -0.00499107 0.0406183 0.0862276 0.131837 0.177446 0.223056 0.268665 0.314274 0.359884 0.405493 0.451102 0.496712 0.542321 0.58793 0.63354 0.679149 0.724758 0.770368 0.815977 0.861586 0.907196 0.952805 0.998414 1.04402 1.08963 1.13524 1.18085 1.22646 1.27207 1.31768 1.36329 1.4089 1.45451 1.50012 1.54573 1.59134 1.63695 1.68255 1.72816 1.77377 1.81938 1.86499 1.9106 1.95621 2.00182 2.04743 2.09304 2.13865 2.18426 2.22987 2.27548 2.32109 2.36669 2.4123 2.45791 2.50352 2.54913 2.59474 2.6405 2.68625 2.73201 2.77777 2.82352 2.86928 2.91504 2.96079 3.00655 3.05231 3.09806 3.14382 3.18958 3.23533 3.28109 3.32685 3.3726 3.41836 3.46411 3.50987 3.55563 3.60138 3.64714 3.6929 3.73865 3.78441 3.83017 3.87592 3.92168 3.96744 4.01319 4.05895 4.10471 4.15046 4.19622 4.24198 4.28773 4.33349 4.37924 4.425 4.47076 4.51651 4.56227 4.60803 4.65378 4.69954 4.7453 4.79105 4.83681 4.88257 4.92832 4.97408 5.01984 5.06559 5.11135 5.15711 5.20286 5.24862 5.29437 5.34013 5.38572 5.43131 5.47691 5.5225 5.56809 5.61368 5.65927 5.70486 5.75046 5.79605 5.84164 5.88723 5.93282 5.97841 6.02401 6.0696 6.11519 6.16078 6.20637 6.25196 6.29756 6.34315 6.38874 6.43433 6.47992 6.52551 6.57111 6.6167 6.66229 6.70788 6.75347 6.79907 6.84466 6.89025 6.93584 6.98143 7.02702 7.07262 7.11821 7.1638 7.20939 7.25498 7.30057 7.34617 7.39176 7.43735 7.48294 7.52853 7.57412 7.61972 7.66531 7.7109 7.75649 7.80208 7.84767 7.89327 7.93886 7.98445 8.03004
-0.131508 -0.0858108 -0.0401132 0.00558447 0.0512821 0.0969798 0.142677 0.188375 0.234073 0.27977 0.325468 0.371166 0.416863 0.462561 0.508259 0.553956 0.599654 0.645352 0.691049 0.736747 0.782445 0.828142 0.87384 0.919538 0.965235 1.01093 1.05663 1.10233 1.14803 1.19372 1.23942 1.28512 1.33082 1.37651 1.42221 1.46791 1.51361 1.5593 1.605 1.6507 1.6964 1.7421 1.78779 1.83349 1.87919 1.92489 1.97058 2.01628 2.06198 2.10768 2.15337 2.19907 2.24477 2.29047 2.33616 2.38186 2.42756 2.47326 2.51896 2.56465 2.61035 2.65612 2.70189 2.74767 2.79344 2.83921 2.88498 2.93075 2.97652 3.02229 3.06807 3.11384 3.15961 3.20538 3.25115 3.29692 3.34269 3.38847 3.43424 3.48001 3.52578 3.57155 3.61732 3.66309 3.70887 3.75464 3.80041 3.84618 3.89195 3.93772 3.98349 4.02927 4.07504 4.12081 4.16658 4.21235 4.25812 4.3039 4.34967 4.39544 4.44121 4.48698 4.53275 4.57852 4.6243 4.67007 4.71584 4.76161 4.80738 4.85315 4.89892 4.9447 4.99047 5.03624 5.08201 5.12778 5.17355 5.21932 5.2651 5.31087 5.35664 5.40213 5.44762 5.49312 5.53861 5.5841 5.62959 5.67508 5.72058 5.76607 5.81156 5.85705 5.90255 5.94804 5.99353 6.03902 6.08451 6.13001 6.1755 6.22099 6.26648 6.31197 6.35747 6.40296 6.44845 6.49394 6.53944 6.58493 6.63042 6.67591 6.7214 6.7669 6.81239 6.85788 6.90337 6.94887 6.99436 7.03985 7.08534 7.13083 7.17633 7.22182 7.26731 7.3128 7.35829 7.40379 7.44928 7.49477 7.54026 7.58576 7.63125 7.67674 7.72223 7.76772 7.81322 7.85871 7.9042 7.94969 7.99519 8.04068
-0.121198 -0.0754119 -0.0296259 0.01616 0.061946 0.107732 0.153518 0.199304 0.24509 0.290876 0.336662 0.382448 0.428234 0.47402 0.519806 0.565592 0.611378 0.657164 0.70295 0.748735 0.794521 0.840307 0.886093 0.931879 0.977665 1.02345 1.06924 1.11502 1.16081 1.2066 1.25238 1.29817 1.34395 1.38974 1.43552 1.48131 1.5271 1.57288 1.61867 1.66445 1.71024 1.75603 1.80181 1.8476 1.89338 1.93917 1.98496 2.03074 2.07653 2.12231 2.1681 2.21389 2.25967 2.30546 2.35124 2.39703 2.44282 2.4886 2.53439 2.58017 2.62596 2.67175 2.71753 2.76332 2.80911 2.85489 2.90068 2.94647 2.99225 3.03804 3.08382 3.12961 3.1754 3.22118 3.26697 3.31276 3.35854 3.40433 3.45012 3.4959 3.54169 3.58748 3.63326 3.67905 3.72483 3.77062 3.81641 3.86219 3.90798 3.95377 3.99955 4.04534 4.09113 4.13691 4.1827 4.22849 4.27427 4.32006 4.36585 4.41163 4.45742 4.5032 4.54899 4.59478 4.64056 4.68635 4.73214 4.77792 4.82371 4.8695 4.91528 4.96107 5.00686 5.05264 5.09843 5.14422 5.19 5.23579 5.28157 5.32736 5.37315 5.41854 5.46393 5.50933 5.55472 5.60011 5.6455 5.6909 5.73629 5.78168 5.82707 5.87247 5.91786 5.96325 6.00864 6.05404 6.09943 6.14482 6.19022 6.23561 6.281 6.32639 6.37179 6.41718 6.46257 6.50796 6.55336 6.59875 6.64414 6.68953 6.73493 6.78032 6.82571 6.8711 6.9165 6.96189 7.00728 7.05268 7.09807 7.14346 7.18885 7.23425 7.27964 7.32503 7.37042 7.41582 7.46121 7.5066 7.55199 7.59739 7.64278 7.68817 7.73357 7.77896 7.82435 7.86974 7.91514 7.96053 8.00592 8.05131
-0.110887 -0.065013 -0.0191387 0.0267356 0.0726098 0.118484 0.164358 0.210233 0.256107 0.301981 0.347856 0.39373 0.439604 0.485478 0.531353 0.577227 0.623101 0.668975 0.71485 0.760724 0.806598 0.852473 0.898347 0.944221 0.990095 1.03597 1.08184 1.12772 1.17359 1.21947 1.26534 1.31122 1.35709 1.40296 1.44884 1.49471 1.54059 1.58646 1.63234 1.67821 1.72408 1.76996 1.81583 1.86171 1.90758 1.95346 1.99933 2.0452 2.09108 2.13695 2.18283 2.2287 2.27458 2.32045 2.36632 2.4122 2.45807 2.50395 2.54982 2.5957 2.64157 2.68737 2.73317 2.77897 2.82478 2.87058 2.91638 2.96218 3.00798 3.05378 3.09958 3.14539 3.19119 3.23699 3.28279 3.32859 3.37439 3.42019 3.466 3.5118 3.5576 3.6034 3.6492 3.695 3.7408 3.78661 3.83241 3.87821 3.92401 3.96981 4.01561 4.06141 4.10722 4.15302 4.19882 4.24462 4.29042 4.33622 4.38202 4.42783 4.47363 4.51943 4.56523 4.61103 4.65683 4.70263 4.74844 4.79424 4.84004 4.88584 4.93164 4.97744 5.02324 5.06905 5.11485 5.16065 5.20645 5.25225 5.29805 5.34385 5.38966 5.43495 5.48024 5.52553 5.57083 5.61612 5.66141 5.70671 5.752 5.79729 5.84259 5.88788 5.93317 5.97847 6.02376 6.06905 6.11435 6.15964 6.20493 6.25023 6.29552 6.34081 6.3861 6.4314 6.47669 6.52198 6.56728 6.61257 6.65786 6.70316 6.74845 6.79374 6.83904 6.88433 6.92962 6.97492 7.02021 7.0655 7.11079 7.15609 7.20138 7.24667 7.29197 7.33726 7.38255 7.42785 7.47314 7.51843 7.56373 7.60902 7.65431 7.69961 7.7449 7.79019 7.83548 7.88078 7.92607 7.97136 8.01666 8.06195
-0.100577 -0.0546141 -0.00865148 0.0373111 0.0832737 0.129236 0.175199 0.221161 0.267124 0.313087 0.359049 0.405012 0.450974 0.496937 0.5429 0.588862 0.634825 0.680787 0.72675 0.772713 0.818675 0.864638 0.9106 0.956563 1.00253 1.04849 1.09445 1.14041 1.18638 1.23234 1.2783 1.32426 1.37023 1.41619 1.46215 1.50811 1.55408 1.60004 1.646 1.69196 1.73793 1.78389 1.82985 1.87581 1.92178 1.96774 2.0137 2.05967 2.10563 2.15159 2.19755 2.24352 2.28948 2.33544 2.3814 2.42737 2.47333 2.51929 2.56525 2.61122 2.65718 2.703 2.74881 2.79463 2.84044 2.88626 2.93208 2.97789 3.02371 3.06953 3.11534 3.16116 3.20698 3.25279 3.29861 3.34443 3.39024 3.43606 3.48187 3.52769 3.57351 3.61932 3.66514 3.71096 3.75677 3.80259 3.84841 3.89422 3.94004 3.98585 4.03167 4.07749 4.1233 4.16912 4.21494 4.26075 4.30657 4.35239 4.3982 4.44402 4.48984 4.53565 4.58147 4.62728 4.6731 4.71892 4.76473 4.81055 4.85637 4.90218 4.948 4.99382 5.03963 5.08545 5.13127 5.17708 5.2229 5.26871 5.31453 5.36035 5.40616 5.45136 5.49655 5.54174 5.58694 5.63213 5.67733 5.72252 5.76771 5.81291 5.8581 5.90329 5.94849 5.99368 6.03887 6.08407 6.12926 6.17446 6.21965 6.26484 6.31004 6.35523 6.40042 6.44562 6.49081 6.536 6.5812 6.62639 6.67159 6.71678 6.76197 6.80717 6.85236 6.89755 6.94275 6.98794 7.03313 7.07833 7.12352 7.16871 7.21391 7.2591 7.3043 7.34949 7.39468 7.43988 7.48507 7.53026 7.57546 7.62065 7.66584 7.71104 7.75623 7.80143 7.84662 7.89181 7.93701 7.9822 8.02739 8.07259
-0.0902661 -0.0442152 0.00183575 0.0478867 0.0939376 0.139988 0.186039 0.23209 0.278141 0.324192 0.370243 0.416294 0.462345 0.508396 0.554447 0.600498 0.646548 0.692599 0.73865 0.784701 0.830752 0.876803 0.922854 0.968905 1.01496 1.06101 1.10706 1.15311 1.19916 1.24521 1.29126 1.33731 1.38336 1.42941 1.47546 1.52152 1.56757 1.61362 1.65967 1.70572 1.75177 1.79782 1.84387 1.88992 1.93597 1.98202 2.02808 2.07413 2.12018 2.16623 2.21228 2.25833 2.30438 2.35043 2.39648 2.44253 2.48858 2.53464 2.58069 2.62674 2.67279 2.71862 2.76445 2.81028 2.85611 2.90195 2.94778 2.99361 3.03944 3.08527 3.1311 3.17693 3.22276 3.2686 3.31443 3.36026 3.40609 3.45192 3.49775 3.54358 3.58942 3.63525 3.68108 3.72691 3.77274 3.81857 3.8644 3.91024 3.95607 4.0019 4.04773 4.09356 4.13939 4.18522 4.23106 4.27689 4.32272 4.36855 4.41438 4.46021 4.50604 4.55188 4.59771 4.64354 4.68937 4.7352 4.78103 4.82686 4.8727 4.91853 4.96436 5.01019 5.05602 5.10185 5.14768 5.19351 5.23935 5.28518 5.33101 5.37684 5.42267 5.46777 5.51286 5.55795 5.60305 5.64814 5.69324 5.73833 5.78342 5.82852 5.87361 5.91871 5.9638 6.0089 6.05399 6.09908 6.14418 6.18927 6.23437 6.27946 6.32455 6.36965 6.41474 6.45984 6.50493 6.55002 6.59512 6.64021 6.68531 6.7304 6.77549 6.82059 6.86568 6.91078 6.95587 7.00097 7.04606 7.09115 7.13625 7.18134 7.22644 7.27153 7.31662 7.36172 7.40681 7.45191 7.497 7.54209 7.58719 7.63228 7.67738 7.72247 7.76757 7.81266 7.85775 7.90285 7.94794 7.99304 8.03813 8.08322
-0.0799555 -0.0338162 0.012323 0.0584622 0.104601 0.150741 0.19688 0.243019 0.289158 0.335297 0.381437 0.427576 0.473715 0.519854 0.565994 0.612133 0.658272 0.704411 0.75055 0.79669 0.842829 0.888968 0.935107 0.981247 1.02739 1.07352 1.11966 1.1658 1.21194 1.25808 1.30422 1.35036 1.3965 1.44264 1.48878 1.53492 1.58106 1.6272 1.67333 1.71947 1.76561 1.81175 1.85789 1.90403 1.95017 1.99631 2.04245 2.08859 2.13473 2.18087 2.22701 2.27314 2.31928 2.36542 2.41156 2.4577 2.50384 2.54998 2.59612 2.64226 2.6884 2.73424 2.78009 2.82594 2.87178 2.91763 2.96348 3.00932 3.05517 3.10101 3.14686 3.19271 3.23855 3.2844 3.33025 3.37609 3.42194 3.46779 3.51363 3.55948 3.60533 3.65117 3.69702 3.74286 3.78871 3.83456 3.8804 3.92625 3.9721 4.01794 4.06379 4.10964 4.15548 4.20133 4.24717 4.29302 4.33887 4.38471 4.43056 4.47641 4.52225 4.5681 4.61395 4.65979 4.70564 4.75148 4.79733 4.84318 4.88902 4.93487 4.98072 5.02656 5.07241 5.11826 5.1641 5.20995 5.25579 5.30164 5.34749 5.39333 5.43918 5.48417 5.52917 5.57416 5.61916 5.66415 5.70915 5.75414 5.79914 5.84413 5.88913 5.93412 5.97911 6.02411 6.0691 6.1141 6.15909 6.20409 6.24908 6.29408 6.33907 6.38407 6.42906 6.47406 6.51905 6.56404 6.60904 6.65403 6.69903 6.74402 6.78902 6.83401 6.87901 6.924 6.969 7.01399 7.05899 7.10398 7.14897 7.19397 7.23896 7.28396 7.32895 7.37395 7.41894 7.46394 7.50893 7.55393 7.59892 7.64391 7.68891 7.7339 7.7789 7.82389 7.86889 7.91388 7.95888 8.00387 8.04887 8.09386
-0.0696448 -0.0234173 0.0228102 0.0690377 0.115265 0.161493 0.20772 0.253948 0.300175 0.346403 0.39263 0.438858 0.485086 0.531313 0.577541 0.623768 0.669996 0.716223 0.762451 0.808678 0.854906 0.901133 0.947361 0.993588 1.03982 1.08604 1.13227 1.1785 1.22473 1.27095 1.31718 1.36341 1.40964 1.45586 1.50209 1.54832 1.59455 1.64077 1.687 1.73323 1.77946 1.82568 1.87191 1.91814 1.96437 2.01059 2.05682 2.10305 2.14928 2.1955 2.24173 2.28796 2.33419 2.38041 2.42664 2.47287 2.5191 2.56532 2.61155 2.65778 2.70401 2.74987 2.79573 2.84159 2.88745 2.93331 2.97918 3.02504 3.0709 3.11676 3.16262 3.20848 3.25434 3.3002 3.34607 3.39193 3.43779 3.48365 3.52951 3.57537 3.62123 3.6671 3.71296 3.75882 3.80468 3.85054 3.8964 3.94226 3.98812 4.03399 4.07985 4.12571 4.17157 4.21743 4.26329 4.30915 4.35502 4.40088 4.44674 4.4926 4.53846 4.58432 4.63018 4.67605 4.72191 4.76777 4.81363 4.85949 4.90535 4.95121 4.99707 5.04294 5.0888 5.13466 5.18052 5.22638 5.27224 5.3181 5.36397 5.40983 5.45569 5.50058 5.54548 5.59037 5.63527 5.68016 5.72506 5.76995 5.81485 5.85974 5.90464 5.94953 5.99443 6.03932 6.08422 6.12911 6.17401 6.2189 6.2638 6.30869 6.35359 6.39848 6.44338 6.48827 6.53317 6.57806 6.62296 6.66786 6.71275 6.75765 6.80254 6.84744 6.89233 6.93723 6.98212 7.02702 7.07191 7.11681 7.1617 7.2066 7.25149 7.29639 7.34128 7.38618 7.43107 7.47597 7.52086 7.56576 7.61065 7.65555 7.70044 7.74534 7.79023 7.83513 7.88002 7.92492 7.96981 8.01471 8.0596 8.1045
-0.0593342 -0.0130184 0.0332974 0.0796133 0.125929 0.172245 0.218561 0.264877 0.311192 0.357508 0.403824 0.45014 0.496456 0.542772 0.589088 0.635403 0.681719 0.728035 0.774351 0.820667 0.866983 0.913298 0.959614 1.00593 1.05225 1.09856 1.14488 1.19119 1.23751 1.28383 1.33014 1.37646 1.42277 1.46909 1.5154 1.56172 1.60804 1.65435 1.70067 1.74698 1.7933 1.83962 1.88593 1.93225 1.97856 2.02488 2.07119 2.11751 2.16383 2.21014 2.25646 2.30277 2.34909 2.39541 2.44172 2.48804 2.53435 2.58067 2.62698 2.6733 2.71962 2.76549 2.81137 2.85725 2.90312 2.949 2.99487 3.04075 3.08663 3.1325 3.17838 3.22426 3.27013 3.31601 3.36188 3.40776 3.45364 3.49951 3.54539 3.59127 3.63714 3.68302 3.7289 3.77477 3.82065 3.86652 3.9124 3.95828 4.00415 4.05003 4.09591 4.14178 4.18766 4.23354 4.27941 4.32529 4.37116 4.41704 4.46292 4.50879 4.55467 4.60055 4.64642 4.6923 4.73817 4.78405 4.82993 4.8758 4.92168 4.96756 5.01343 5.05931 5.10519 5.15106 5.19694 5.24281 5.28869 5.33457 5.38044 5.42632 5.4722 5.51699 5.56179 5.60658 5.65138 5.69617 5.74097 5.78577 5.83056 5.87536 5.92015 5.96495 6.00974 6.05454 6.09933 6.14413 6.18893 6.23372 6.27852 6.32331 6.36811 6.4129 6.4577 6.50249 6.54729 6.59209 6.63688 6.68168 6.72647 6.77127 6.81606 6.86086 6.90565 6.95045 6.99525 7.04004 7.08484 7.12963 7.17443 7.21922 7.26402 7.30881 7.35361 7.39841 7.4432 7.488 7.53279 7.57759 7.62238 7.66718 7.71197 7.75677 7.80157 7.84636 7.89116 7.93595 7.98075 8.02554 8.07034 8.11513
-0.0490236 -0.00261948 0.0437847 0.0901888 0.136593 0.182997 0.229401 0.275805 0.32221 0.368614 0.415018 0.461422 0.507826 0.55423 0.600635 0.647039 0.693443 0.739847 0.786251 0.832655 0.879059 0.925464 0.971868 1.01827 1.06468 1.11108 1.15748 1.20389 1.25029 1.2967 1.3431 1.38951 1.43591 1.48231 1.52872 1.57512 1.62153 1.66793 1.71433 1.76074 1.80714 1.85355 1.89995 1.94636 1.99276 2.03916 2.08557 2.13197 2.17838 2.22478 2.27118 2.31759 2.36399 2.4104 2.4568 2.5032 2.54961 2.59601 2.64242 2.68882 2.73523 2.78112 2.82701 2.8729 2.91879 2.96468 3.01057 3.05646 3.10236 3.14825 3.19414 3.24003 3.28592 3.33181 3.3777 3.4236 3.46949 3.51538 3.56127 3.60716 3.65305 3.69894 3.74483 3.79073 3.83662 3.88251 3.9284 3.97429 4.02018 4.06607 4.11197 4.15786 4.20375 4.24964 4.29553 4.34142 4.38731 4.4332 4.4791 4.52499 4.57088 4.61677 4.66266 4.70855 4.75444 4.80033 4.84623 4.89212 4.93801 4.9839 5.02979 5.07568 5.12157 5.16747 5.21336 5.25925 5.30514 5.35103 5.39692 5.44281 5.4887 5.5334 5.5781 5.62279 5.66749 5.71218 5.75688 5.80158 5.84627 5.89097 5.93566 5.98036 6.02506 6.06975 6.11445 6.15914 6.20384 6.24854 6.29323 6.33793 6.38263 6.42732 6.47202 6.51671 6.56141 6.60611 6.6508 6.6955 6.74019 6.78489 6.82959 6.87428 6.91898 6.96367 7.00837 7.05307 7.09776 7.14246 7.18715 7.23185 7.27655 7.32124 7.36594 7.41063 7.45533 7.50003 7.54472 7.58942 7.63411 7.67881 7.72351 7.7682 7.8129 7.85759 7.90229 7.94699 7.99168 8.03638 8.08107 8.12577
-0.038713 0.00777944 0.0542719 0.100764 0.147257 0.193749 0.240242 0.286734 0.333227 0.379719 0.426212 0.472704 0.519197 0.565689 0.612182 0.658674 0.705166 0.751659 0.798151 0.844644 0.891136 0.937629 0.984121 1.03061 1.07711 1.1236 1.17009 1.21658 1.26308 1.30957 1.35606 1.40255 1.44905 1.49554 1.54203 1.58852 1.63502 1.68151 1.728 1.77449 1.82099 1.86748 1.91397 1.96046 2.00696 2.05345 2.09994 2.14643 2.19293 2.23942 2.28591 2.3324 2.3789 2.42539 2.47188 2.51837 2.56487 2.61136 2.65785 2.70434 2.75084 2.79674 2.84265 2.88855 2.93446 2.98037 3.02627 3.07218 3.11809 3.16399 3.2099 3.2558 3.30171 3.34762 3.39352 3.43943 3.48534 3.53124 3.57715 3.62305 3.66896 3.71487 3.76077 3.80668 3.85259 3.89849 3.9444 3.9903 4.03621 4.08212 4.12802 4.17393 4.21984 4.26574 4.31165 4.35756 4.40346 4.44937 4.49527 4.54118 4.58709 4.63299 4.6789 4.72481 4.77071 4.81662 4.86252 4.90843 4.95434 5.00024 5.04615 5.09206 5.13796 5.18387 5.22977 5.27568 5.32159 5.36749 5.4134 5.45931 5.50521 5.54981 5.59441 5.639 5.6836 5.7282 5.77279 5.81739 5.86198 5.90658 5.95118 5.99577 6.04037 6.08497 6.12956 6.17416 6.21876 6.26335 6.30795 6.35255 6.39714 6.44174 6.48634 6.53093 6.57553 6.62013 6.66472 6.70932 6.75392 6.79851 6.84311 6.8877 6.9323 6.9769 7.02149 7.06609 7.11069 7.15528 7.19988 7.24448 7.28907 7.33367 7.37827 7.42286 7.46746 7.51206 7.55665 7.60125 7.64585 7.69044 7.73504 7.77964 7.82423 7.86883 7.91342 7.95802 8.00262 8.04721 8.09181 8.13641
-0.0284024 0.0181784 0.0647591 0.11134 0.157921 0.204501 0.251082 0.297663 0.344244 0.390825 0.437405 0.483986 0.530567 0.577148 0.623729 0.670309 0.71689 0.763471 0.810052 0.856632 0.903213 0.949794 0.996375 1.04296 1.08954 1.13612 1.1827 1.22928 1.27586 1.32244 1.36902 1.4156 1.46218 1.50876 1.55534 1.60192 1.64851 1.69509 1.74167 1.78825 1.83483 1.88141 1.92799 1.97457 2.02115 2.06773 2.11431 2.16089 2.20748 2.25406 2.30064 2.34722 2.3938 2.44038 2.48696 2.53354 2.58012 2.6267 2.67328 2.71986 2.76644 2.81237 2.85829 2.90421 2.95013 2.99605 3.04197 3.08789 3.13381 3.17974 3.22566 3.27158 3.3175 3.36342 3.40934 3.45526 3.50118 3.54711 3.59303 3.63895 3.68487 3.73079 3.77671 3.82263 3.86855 3.91448 3.9604 4.00632 4.05224 4.09816 4.14408 4.19 4.23593 4.28185 4.32777 4.37369 4.41961 4.46553 4.51145 4.55737 4.6033 4.64922 4.69514 4.74106 4.78698 4.8329 4.87882 4.92474 4.97067 5.01659 5.06251 5.10843 5.15435 5.20027 5.24619 5.29211 5.33804 5.38396 5.42988 5.4758 5.52172 5.56622 5.61071 5.65521 5.69971 5.74421 5.7887 5.8332 5.8777 5.92219 5.96669 6.01119 6.05568 6.10018 6.14468 6.18918 6.23367 6.27817 6.32267 6.36716 6.41166 6.45616 6.50065 6.54515 6.58965 6.63415 6.67864 6.72314 6.76764 6.81213 6.85663 6.90113 6.94562 6.99012 7.03462 7.07912 7.12361 7.16811 7.21261 7.2571 7.3016 7.3461 7.39059 7.43509 7.47959 7.52409 7.56858 7.61308 7.65758 7.70207 7.74657 7.79107 7.83556 7.88006 7.92456 7.96906 8.01355 8.05805 8.10255 8.14704
-0.0180918 0.0285773 0.0752464 0.121915 0.168585 0.215254 0.261923 0.308592 0.355261 0.40193 0.448599 0.495268 0.541937 0.588606 0.635275 0.681945 0.728614 0.775283 0.821952 0.868621 0.91529 0.961959 1.00863 1.0553 1.10197 1.14864 1.1953 1.24197 1.28864 1.33531 1.38198 1.42865 1.47532 1.52199 1.56866 1.61533 1.662 1.70866 1.75533 1.802 1.84867 1.89534 1.94201 1.98868 2.03535 2.08202 2.12869 2.17536 2.22202 2.26869 2.31536 2.36203 2.4087 2.45537 2.50204 2.54871 2.59538 2.64205 2.68872 2.73538 2.78205 2.82799 2.87393 2.91986 2.9658 3.01174 3.05767 3.10361 3.14954 3.19548 3.24142 3.28735 3.33329 3.37923 3.42516 3.4711 3.51703 3.56297 3.60891 3.65484 3.70078 3.74672 3.79265 3.83859 3.88452 3.93046 3.9764 4.02233 4.06827 4.11421 4.16014 4.20608 4.25201 4.29795 4.34389 4.38982 4.43576 4.4817 4.52763 4.57357 4.6195 4.66544 4.71138 4.75731 4.80325 4.84919 4.89512 4.94106 4.98699 5.03293 5.07887 5.1248 5.17074 5.21668 5.26261 5.30855 5.35448 5.40042 5.44636 5.49229 5.53823 5.58263 5.62702 5.67142 5.71582 5.76022 5.80461 5.84901 5.89341 5.93781 5.9822 6.0266 6.071 6.1154 6.15979 6.20419 6.24859 6.29299 6.33738 6.38178 6.42618 6.47058 6.51497 6.55937 6.60377 6.64817 6.69256 6.73696 6.78136 6.82576 6.87015 6.91455 6.95895 7.00335 7.04774 7.09214 7.13654 7.18094 7.22533 7.26973 7.31413 7.35853 7.40292 7.44732 7.49172 7.53612 7.58051 7.62491 7.66931 7.71371 7.7581 7.8025 7.8469 7.8913 7.93569 7.98009 8.02449 8.06889 8.11328 8.15768
-0.00778121 0.0389762 0.0857336 0.132491 0.179248 0.226006 0.272763 0.319521 0.366278 0.413035 0.459793 0.50655 0.553308 0.600065 0.646822 0.69358 0.740337 0.787095 0.833852 0.88061 0.927367 0.974124 1.02088 1.06764 1.1144 1.16115 1.20791 1.25467 1.30143 1.34818 1.39494 1.4417 1.48846 1.53521 1.58197 1.62873 1.67549 1.72224 1.769 1.81576 1.86252 1.90927 1.95603 2.00279 2.04954 2.0963 2.14306 2.18982 2.23657 2.28333 2.33009 2.37685 2.4236 2.47036 2.51712 2.56388 2.61063 2.65739 2.70415 2.75091 2.79766 2.84361 2.88957 2.93552 2.98147 3.02742 3.07337 3.11932 3.16527 3.21122 3.25718 3.30313 3.34908 3.39503 3.44098 3.48693 3.53288 3.57883 3.62479 3.67074 3.71669 3.76264 3.80859 3.85454 3.90049 3.94644 3.9924 4.03835 4.0843 4.13025 4.1762 4.22215 4.2681 4.31405 4.36 4.40596 4.45191 4.49786 4.54381 4.58976 4.63571 4.68166 4.72761 4.77357 4.81952 4.86547 4.91142 4.95737 5.00332 5.04927 5.09522 5.14118 5.18713 5.23308 5.27903 5.32498 5.37093 5.41688 5.46283 5.50879 5.55474 5.59903 5.64333 5.68763 5.73193 5.77623 5.82052 5.86482 5.90912 5.95342 5.99772 6.04201 6.08631 6.13061 6.17491 6.21921 6.2635 6.3078 6.3521 6.3964 6.4407 6.48499 6.52929 6.57359 6.61789 6.66219 6.70648 6.75078 6.79508 6.83938 6.88368 6.92797 6.97227 7.01657 7.06087 7.10517 7.14946 7.19376 7.23806 7.28236 7.32666 7.37095 7.41525 7.45955 7.50385 7.54815 7.59244 7.63674 7.68104 7.72534 7.76964 7.81393 7.85823 7.90253 7.94683 7.99113 8.03542 8.07972 8.12402 8.16832
0.0025294 0.0493751 0.0962208 0.143067 0.189912 0.236758 0.283604 0.330449 0.377295 0.424141 0.470987 0.517832 0.564678 0.611524 0.658369 0.705215 0.752061 0.798907 0.845752 0.892598 0.939444 0.986289 1.03314 1.07998 1.12683 1.17367 1.22052 1.26736 1.31421 1.36106 1.4079 1.45475 1.50159 1.54844 1.59528 1.64213 1.68898 1.73582 1.78267 1.82951 1.87636 1.9232 1.97005 2.0169 2.06374 2.11059 2.15743 2.20428 2.25112 2.29797 2.34482 2.39166 2.43851 2.48535 2.5322 2.57904 2.62589 2.67274 2.71958 2.76643 2.81327 2.85924 2.9052 2.95117 2.99714 3.0431 3.08907 3.13504 3.181 3.22697 3.27293 3.3189 3.36487 3.41083 3.4568 3.50277 3.54873 3.5947 3.64066 3.68663 3.7326 3.77856 3.82453 3.8705 3.91646 3.96243 4.00839 4.05436 4.10033 4.14629 4.19226 4.23822 4.28419 4.33016 4.37612 4.42209 4.46806 4.51402 4.55999 4.60595 4.65192 4.69789 4.74385 4.78982 4.83579 4.88175 4.92772 4.97368 5.01965 5.06562 5.11158 5.15755 5.20352 5.24948 5.29545 5.34141 5.38738 5.43335 5.47931 5.52528 5.57125 5.61544 5.65964 5.70384 5.74804 5.79224 5.83644 5.88063 5.92483 5.96903 6.01323 6.05743 6.10163 6.14582 6.19002 6.23422 6.27842 6.32262 6.36682 6.41102 6.45521 6.49941 6.54361 6.58781 6.63201 6.67621 6.7204 6.7646 6.8088 6.853 6.8972 6.9414 6.9856 7.02979 7.07399 7.11819 7.16239 7.20659 7.25079 7.29498 7.33918 7.38338 7.42758 7.47178 7.51598 7.56018 7.60437 7.64857 7.69277 7.73697 7.78117 7.82537 7.86956 7.91376 7.95796 8.00216 8.04636 8.09056 8.13476 8.17895
0.01284 0.059774 0.106708 0.153642 0.200576 0.24751 0.294444 0.341378 0.388312 0.435246 0.48218 0.529114 0.576048 0.622982 0.669916 0.71685 0.763785 0.810719 0.857653 0.904587 0.951521 0.998455 1.04539 1.09232 1.13926 1.18619 1.23312 1.28006 1.32699 1.37393 1.42086 1.46779 1.51473 1.56166 1.6086 1.65553 1.70247 1.7494 1.79633 1.84327 1.8902 1.93714 1.98407 2.031 2.07794 2.12487 2.17181 2.21874 2.26567 2.31261 2.35954 2.40648 2.45341 2.50034 2.54728 2.59421 2.64115 2.68808 2.73501 2.78195 2.82888 2.87486 2.92084 2.96683 3.01281 3.05879 3.10477 3.15075 3.19673 3.24271 3.28869 3.33467 3.38066 3.42664 3.47262 3.5186 3.56458 3.61056 3.65654 3.70252 3.74851 3.79449 3.84047 3.88645 3.93243 3.97841 4.02439 4.07037 4.11636 4.16234 4.20832 4.2543 4.30028 4.34626 4.39224 4.43822 4.4842 4.53019 4.57617 4.62215 4.66813 4.71411 4.76009 4.80607 4.85205 4.89804 4.94402 4.99 5.03598 5.08196 5.12794 5.17392 5.2199 5.26588 5.31187 5.35785 5.40383 5.44981 5.49579 5.54177 5.58775 5.63185 5.67595 5.72005 5.76415 5.80825 5.85235 5.89645 5.94054 5.98464 6.02874 6.07284 6.11694 6.16104 6.20514 6.24924 6.29334 6.33744 6.38153 6.42563 6.46973 6.51383 6.55793 6.60203 6.64613 6.69023 6.73433 6.77842 6.82252 6.86662 6.91072 6.95482 6.99892 7.04302 7.08712 7.13122 7.17532 7.21941 7.26351 7.30761 7.35171 7.39581 7.43991 7.48401 7.52811 7.57221 7.6163 7.6604 7.7045 7.7486 7.7927 7.8368 7.8809 7.925 7.9691 8.01319 8.05729 8.10139 8.14549 8.18959
0.0231506 0.070173 0.117195 0.164218 0.21124 0.258262 0.305285 0.352307 0.399329 0.446352 0.493374 0.540396 0.587419 0.634441 0.681463 0.728486 0.775508 0.82253 0.869553 0.916575 0.963597 1.01062 1.05764 1.10466 1.15169 1.19871 1.24573 1.29275 1.33978 1.3868 1.43382 1.48084 1.52787 1.57489 1.62191 1.66893 1.71595 1.76298 1.81 1.85702 1.90404 1.95107 1.99809 2.04511 2.09213 2.13916 2.18618 2.2332 2.28022 2.32725 2.37427 2.42129 2.46831 2.51533 2.56236 2.60938 2.6564 2.70342 2.75045 2.79747 2.84449 2.89049 2.93648 2.98248 3.02848 3.07447 3.12047 3.16646 3.21246 3.25846 3.30445 3.35045 3.39645 3.44244 3.48844 3.53443 3.58043 3.62643 3.67242 3.71842 3.76441 3.81041 3.85641 3.9024 3.9484 3.9944 4.04039 4.08639 4.13238 4.17838 4.22438 4.27037 4.31637 4.36236 4.40836 4.45436 4.50035 4.54635 4.59235 4.63834 4.68434 4.73033 4.77633 4.82233 4.86832 4.91432 4.96031 5.00631 5.05231 5.0983 5.1443 5.1903 5.23629 5.28229 5.32828 5.37428 5.42028 5.46627 5.51227 5.55827 5.60426 5.64826 5.69226 5.73626 5.78026 5.82426 5.86826 5.91226 5.95626 6.00026 6.04426 6.08825 6.13225 6.17625 6.22025 6.26425 6.30825 6.35225 6.39625 6.44025 6.48425 6.52825 6.57225 6.61625 6.66025 6.70425 6.74825 6.79225 6.83625 6.88024 6.92424 6.96824 7.01224 7.05624 7.10024 7.14424 7.18824 7.23224 7.27624 7.32024 7.36424 7.40824 7.45224 7.49624 7.54024 7.58424 7.62823 7.67223 7.71623 7.76023 7.80423 7.84823 7.89223 7.93623 7.98023 8.02423 8.06823 8.11223 8.15623 8.20023
0.0334612 0.0805719 0.127683 0.174793 0.221904 0.269015 0.316125 0.363236 0.410346 0.457457 0.504568 0.551678 0.598789 0.6459 0.69301 0.740121 0.787232 0.834342 0.881453 0.928564 0.975674 1.02279 1.0699 1.11701 1.16412 1.21123 1.25834 1.30545 1.35256 1.39967 1.44678 1.49389 1.541 1.58811 1.63522 1.68233 1.72944 1.77656 1.82367 1.87078 1.91789 1.965 2.01211 2.05922 2.10633 2.15344 2.20055 2.24766 2.29477 2.34188 2.38899 2.4361 2.48322 2.53033 2.57744 2.62455 2.67166 2.71877 2.76588 2.81299 2.8601 2.90611 2.95212 2.99813 3.04415 3.09016 3.13617 3.18218 3.22819 3.2742 3.32021 3.36622 3.41223 3.45825 3.50426 3.55027 3.59628 3.64229 3.6883 3.73431 3.78032 3.82633 3.87235 3.91836 3.96437 4.01038 4.05639 4.1024 4.14841 4.19442 4.24044 4.28645 4.33246 4.37847 4.42448 4.47049 4.5165 4.56251 4.60852 4.65454 4.70055 4.74656 4.79257 4.83858 4.88459 4.9306 4.97661 5.02262 5.06864 5.11465 5.16066 5.20667 5.25268 5.29869 5.3447 5.39071 5.43672 5.48274 5.52875 5.57476 5.62077 5.66467 5.70857 5.75247 5.79637 5.84027 5.88417 5.92807 5.97197 6.01587 6.05977 6.10367 6.14757 6.19147 6.23537 6.27927 6.32317 6.36707 6.41097 6.45487 6.49877 6.54267 6.58657 6.63047 6.67437 6.71827 6.76217 6.80607 6.84997 6.89387 6.93777 6.98167 7.02557 7.06947 7.11337 7.15727 7.20117 7.24507 7.28897 7.33287 7.37677 7.42067 7.46457 7.50847 7.55237 7.59627 7.64017 7.68407 7.72797 7.77186 7.81576 7.85966 7.90356 7.94746 7.99136 8.03526 8.07916 8.12306 8.16696 8.21086
0.0437718 0.0909708 0.13817 0.185369 0.232568 0.279767 0.326966 0.374165 0.421364 0.468563 0.515762 0.56296 0.610159 0.657358 0.704557 0.751756 0.798955 0.846154 0.893353 0.940552 0.987751 1.03495 1.08215 1.12935 1.17655 1.22375 1.27095 1.31814 1.36534 1.41254 1.45974 1.50694 1.55414 1.60134 1.64854 1.69574 1.74293 1.79013 1.83733 1.88453 1.93173 1.97893 2.02613 2.07333 2.12053 2.16773 2.21492 2.26212 2.30932 2.35652 2.40372 2.45092 2.49812 2.54532 2.59252 2.63972 2.68691 2.73411 2.78131 2.82851 2.87571 2.92174 2.96776 3.01379 3.05981 3.10584 3.15187 3.19789 3.24392 3.28995 3.33597 3.382 3.42802 3.47405 3.52008 3.5661 3.61213 3.65815 3.70418 3.75021 3.79623 3.84226 3.88828 3.93431 3.98034 4.02636 4.07239 4.11842 4.16444 4.21047 4.25649 4.30252 4.34855 4.39457 4.4406 4.48662 4.53265 4.57868 4.6247 4.67073 4.71676 4.76278 4.80881 4.85483 4.90086 4.94689 4.99291 5.03894 5.08496 5.13099 5.17702 5.22304 5.26907 5.31509 5.36112 5.40715 5.45317 5.4992 5.54523 5.59125 5.63728 5.68108 5.72488 5.76868 5.81248 5.85628 5.90008 5.94388 5.98768 6.03148 6.07528 6.11908 6.16288 6.20668 6.25048 6.29428 6.33808 6.38188 6.42568 6.46949 6.51329 6.55709 6.60089 6.64469 6.68849 6.73229 6.77609 6.81989 6.86369 6.90749 6.95129 6.99509 7.03889 7.08269 7.12649 7.17029 7.21409 7.25789 7.30169 7.34549 7.38929 7.43309 7.47689 7.52069 7.56449 7.6083 7.6521 7.6959 7.7397 7.7835 7.8273 7.8711 7.9149 7.9587 8.0025 8.0463 8.0901 8.1339 8.1777 8.2215
0.0540824 0.10137 0.148657 0.195944 0.243232 0.290519 0.337806 0.385093 0.432381 0.479668 0.526955 0.574243 0.62153 0.668817 0.716104 0.763392 0.810679 0.857966 0.905254 0.952541 0.999828 1.04712 1.0944 1.14169 1.18898 1.23626 1.28355 1.33084 1.37813 1.42541 1.4727 1.51999 1.56728 1.61456 1.66185 1.70914 1.75642 1.80371 1.851 1.89829 1.94557 1.99286 2.04015 2.08744 2.13472 2.18201 2.2293 2.27658 2.32387 2.37116 2.41845 2.46573 2.51302 2.56031 2.6076 2.65488 2.70217 2.74946 2.79674 2.84403 2.89132 2.93736 2.9834 3.02944 3.07548 3.12152 3.16757 3.21361 3.25965 3.30569 3.35173 3.39777 3.44381 3.48985 3.53589 3.58194 3.62798 3.67402 3.72006 3.7661 3.81214 3.85818 3.90422 3.95026 3.99631 4.04235 4.08839 4.13443 4.18047 4.22651 4.27255 4.31859 4.36463 4.41068 4.45672 4.50276 4.5488 4.59484 4.64088 4.68692 4.73296 4.779 4.82505 4.87109 4.91713 4.96317 5.00921 5.05525 5.10129 5.14733 5.19337 5.23942 5.28546 5.3315 5.37754 5.42358 5.46962 5.51566 5.5617 5.60774 5.65379 5.69749 5.74119 5.78489 5.82859 5.87229 5.91599 5.95969 6.00339 6.04709 6.09079 6.1345 6.1782 6.2219 6.2656 6.3093 6.353 6.3967 6.4404 6.4841 6.5278 6.5715 6.61521 6.65891 6.70261 6.74631 6.79001 6.83371 6.87741 6.92111 6.96481 7.00851 7.05221 7.09591 7.13962 7.18332 7.22702 7.27072 7.31442 7.35812 7.40182 7.44552 7.48922 7.53292 7.57662 7.62033 7.66403 7.70773 7.75143 7.79513 7.83883 7.88253 7.92623 7.96993 8.01363 8.05733 8.10103 8.14474 8.18844 8.23214
0.064393 0.111769 0.159144 0.20652 0.253895 0.301271 0.348647 0.396022 0.443398 0.490773 0.538149 0.585525 0.6329 0.680276 0.727651 0.775027 0.822403 0.869778 0.917154 0.964529 1.0119 1.05928 1.10666 1.15403 1.20141 1.24878 1.29616 1.34353 1.39091 1.43829 1.48566 1.53304 1.58041 1.62779 1.67516 1.72254 1.76991 1.81729 1.86467 1.91204 1.95942 2.00679 2.05417 2.10154 2.14892 2.19629 2.24367 2.29105 2.33842 2.3858 2.43317 2.48055 2.52792 2.5753 2.62268 2.67005 2.71743 2.7648 2.81218 2.85955 2.90693 2.95298 2.99904 3.0451 3.09115 3.13721 3.18327 3.22932 3.27538 3.32143 3.36749 3.41355 3.4596 3.50566 3.55171 3.59777 3.64383 3.68988 3.73594 3.78199 3.82805 3.87411 3.92016 3.96622 4.01227 4.05833 4.10439 4.15044 4.1965 4.24256 4.28861 4.33467 4.38072 4.42678 4.47284 4.51889 4.56495 4.611 4.65706 4.70312 4.74917 4.79523 4.84128 4.88734 4.9334 4.97945 5.02551 5.07156 5.11762 5.16368 5.20973 5.25579 5.30185 5.3479 5.39396 5.44001 5.48607 5.53213 5.57818 5.62424 5.67029 5.7139 5.7575 5.8011 5.8447 5.8883 5.9319 5.9755 6.0191 6.06271 6.10631 6.14991 6.19351 6.23711 6.28071 6.32431 6.36792 6.41152 6.45512 6.49872 6.54232 6.58592 6.62952 6.67313 6.71673 6.76033 6.80393 6.84753 6.89113 6.93473 6.97833 7.02194 7.06554 7.10914 7.15274 7.19634 7.23994 7.28354 7.32715 7.37075 7.41435 7.45795 7.50155 7.54515 7.58875 7.63236 7.67596 7.71956 7.76316 7.80676 7.85036 7.89396 7.93756 7.98117 8.02477 8.06837 8.11197 8.15557 8.19917 8.24277
0.0747036 0.122168 0.169631 0.217095 0.264559 0.312023 0.359487 0.406951 0.454415 0.501879 0.549343 0.596807 0.644271 0.691734 0.739198 0.786662 0.834126 0.88159 0.929054 0.976518 1.02398 1.07145 1.11891 1.16637 1.21384 1.2613 1.30877 1.35623 1.40369 1.45116 1.49862 1.54608 1.59355 1.64101 1.68848 1.73594 1.7834 1.83087 1.87833 1.9258 1.97326 2.02072 2.06819 2.11565 2.16312 2.21058 2.25804 2.30551 2.35297 2.40044 2.4479 2.49536 2.54283 2.59029 2.63775 2.68522 2.73268 2.78015 2.82761 2.87507 2.92254 2.96861 3.01468 3.06075 3.10682 3.15289 3.19896 3.24504 3.29111 3.33718 3.38325 3.42932 3.47539 3.52146 3.56753 3.6136 3.65968 3.70575 3.75182 3.79789 3.84396 3.89003 3.9361 3.98217 4.02824 4.07431 4.12039 4.16646 4.21253 4.2586 4.30467 4.35074 4.39681 4.44288 4.48895 4.53503 4.5811 4.62717 4.67324 4.71931 4.76538 4.81145 4.85752 4.90359 4.94966 4.99574 5.04181 5.08788 5.13395 5.18002 5.22609 5.27216 5.31823 5.3643 5.41038 5.45645 5.50252 5.54859 5.59466 5.64073 5.6868 5.7303 5.77381 5.81731 5.86081 5.90431 5.94781 5.99131 6.03482 6.07832 6.12182 6.16532 6.20882 6.25233 6.29583 6.33933 6.38283 6.42633 6.46984 6.51334 6.55684 6.60034 6.64384 6.68734 6.73085 6.77435 6.81785 6.86135 6.90485 6.94836 6.99186 7.03536 7.07886 7.12236 7.16586 7.20937 7.25287 7.29637 7.33987 7.38337 7.42688 7.47038 7.51388 7.55738 7.60088 7.64438 7.68789 7.73139 7.77489 7.81839 7.86189 7.9054 7.9489 7.9924 8.0359 8.0794 8.12291 8.16641 8.20991 8.25341
0.0850142 0.132566 0.180119 0.227671 0.275223 0.322775 0.370328 0.41788 0.465432 0.512984 0.560536 0.608089 0.655641 0.703193 0.750745 0.798298 0.84585 0.893402 0.940954 0.988506 1.03606 1.08361 1.13116 1.17872 1.22627 1.27382 1.32137 1.36892 1.41648 1.46403 1.51158 1.55913 1.60669 1.65424 1.70179 1.74934 1.79689 1.84445 1.892 1.93955 1.9871 2.03466 2.08221 2.12976 2.17731 2.22486 2.27242 2.31997 2.36752 2.41507 2.46263 2.51018 2.55773 2.60528 2.65283 2.70039 2.74794 2.79549 2.84304 2.8906 2.93815 2.98423 3.03032 3.07641 3.12249 3.16858 3.21466 3.26075 3.30684 3.35292 3.39901 3.44509 3.49118 3.53727 3.58335 3.62944 3.67552 3.72161 3.7677 3.81378 3.85987 3.90595 3.95204 3.99813 4.04421 4.0903 4.13638 4.18247 4.22856 4.27464 4.32073 4.36681 4.4129 4.45899 4.50507 4.55116 4.59725 4.64333 4.68942 4.7355 4.78159 4.82768 4.87376 4.91985 4.96593 5.01202 5.05811 5.10419 5.15028 5.19636 5.24245 5.28854 5.33462 5.38071 5.42679 5.47288 5.51897 5.56505 5.61114 5.65722 5.70331 5.74671 5.79011 5.83352 5.87692 5.92032 5.96372 6.00713 6.05053 6.09393 6.13733 6.18074 6.22414 6.26754 6.31094 6.35435 6.39775 6.44115 6.48455 6.52795 6.57136 6.61476 6.65816 6.70156 6.74497 6.78837 6.83177 6.87517 6.91858 6.96198 7.00538 7.04878 7.09218 7.13559 7.17899 7.22239 7.26579 7.3092 7.3526 7.396 7.4394 7.48281 7.52621 7.56961 7.61301 7.65641 7.69982 7.74322 7.78662 7.83002 7.87343 7.91683 7.96023 8.00363 8.04704 8.09044 8.13384 8.17724 8.22065 8.26405
0.0953249 0.142965 0.190606 0.238246 0.285887 0.333528 0.381168 0.428809 0.476449 0.52409 0.57173 0.619371 0.667011 0.714652 0.762292 0.809933 0.857573 0.905214 0.952854 1.00049 1.04814 1.09578 1.14342 1.19106 1.2387 1.28634 1.33398 1.38162 1.42926 1.4769 1.52454 1.57218 1.61982 1.66746 1.7151 1.76274 1.81038 1.85802 1.90567 1.95331 2.00095 2.04859 2.09623 2.14387 2.19151 2.23915 2.28679 2.33443 2.38207 2.42971 2.47735 2.52499 2.57263 2.62027 2.66791 2.71555 2.76319 2.81084 2.85848 2.90612 2.95376 2.99986 3.04596 3.09206 3.13816 3.18426 3.23036 3.27646 3.32257 3.36867 3.41477 3.46087 3.50697 3.55307 3.59917 3.64527 3.69137 3.73747 3.78358 3.82968 3.87578 3.92188 3.96798 4.01408 4.06018 4.10628 4.15238 4.19848 4.24459 4.29069 4.33679 4.38289 4.42899 4.47509 4.52119 4.56729 4.61339 4.65949 4.7056 4.7517 4.7978 4.8439 4.89 4.9361 4.9822 5.0283 5.0744 5.1205 5.16661 5.21271 5.25881 5.30491 5.35101 5.39711 5.44321 5.48931 5.53541 5.58152 5.62762 5.67372 5.71982 5.76312 5.80642 5.84973 5.89303 5.93633 5.97964 6.02294 6.06624 6.10954 6.15285 6.19615 6.23945 6.28275 6.32606 6.36936 6.41266 6.45597 6.49927 6.54257 6.58587 6.62918 6.67248 6.71578 6.75909 6.80239 6.84569 6.88899 6.9323 6.9756 7.0189 7.06221 7.10551 7.14881 7.19211 7.23542 7.27872 7.32202 7.36533 7.40863 7.45193 7.49523 7.53854 7.58184 7.62514 7.66844 7.71175 7.75505 7.79835 7.84166 7.88496 7.92826 7.97156 8.01487 8.05817 8.10147 8.14478 8.18808 8.23138 8.27468
0.105635 0.153364 0.201093 0.248822 0.296551 0.34428 0.392009 0.439737 0.487466 0.535195 0.582924 0.630653 0.678382 0.72611 0.773839 0.821568 0.869297 0.917026 0.964755 1.01248 1.06021 1.10794 1.15567 1.2034 1.25113 1.29886 1.34659 1.39431 1.44204 1.48977 1.5375 1.58523 1.63296 1.68069 1.72842 1.77615 1.82387 1.8716 1.91933 1.96706 2.01479 2.06252 2.11025 2.15798 2.2057 2.25343 2.30116 2.34889 2.39662 2.44435 2.49208 2.53981 2.58754 2.63526 2.68299 2.73072 2.77845 2.82618 2.87391 2.92164 2.96937 3.01548 3.0616 3.10771 3.15383 3.19995 3.24606 3.29218 3.33829 3.38441 3.43053 3.47664 3.52276 3.56887 3.61499 3.66111 3.70722 3.75334 3.79945 3.84557 3.89169 3.9378 3.98392 4.03003 4.07615 4.12227 4.16838 4.2145 4.26061 4.30673 4.35285 4.39896 4.44508 4.49119 4.53731 4.58343 4.62954 4.67566 4.72177 4.76789 4.81401 4.86012 4.90624 4.95235 4.99847 5.04459 5.0907 5.13682 5.18293 5.22905 5.27517 5.32128 5.3674 5.41351 5.45963 5.50575 5.55186 5.59798 5.64409 5.69021 5.73633 5.77953 5.82273 5.86594 5.90914 5.95234 5.99555 6.03875 6.08195 6.12516 6.16836 6.21156 6.25477 6.29797 6.34117 6.38438 6.42758 6.47078 6.51399 6.55719 6.60039 6.6436 6.6868 6.73 6.77321 6.81641 6.85961 6.90282 6.94602 6.98922 7.03243 7.07563 7.11883 7.16204 7.20524 7.24844 7.29165 7.33485 7.37805 7.42125 7.46446 7.50766 7.55086 7.59407 7.63727 7.68047 7.72368 7.76688 7.81008 7.85329 7.89649 7.93969 7.9829 8.0261 8.0693 8.11251 8.15571 8.19891 8.24212 8.28532
0.115946 0.163763 0.21158 0.259398 0.307215 0.355032 0.402849 0.450666 0.498483 0.5463 0.594118 0.641935 0.689752 0.737569 0.785386 0.833203 0.881021 0.928838 0.976655 1.02447 1.07229 1.12011 1.16792 1.21574 1.26356 1.31138 1.35919 1.40701 1.45483 1.50264 1.55046 1.59828 1.6461 1.69391 1.74173 1.78955 1.83736 1.88518 1.933 1.98082 2.02863 2.07645 2.12427 2.17208 2.2199 2.26772 2.31554 2.36335 2.41117 2.45899 2.5068 2.55462 2.60244 2.65026 2.69807 2.74589 2.79371 2.84152 2.88934 2.93716 2.98498 3.03111 3.07724 3.12337 3.1695 3.21563 3.26176 3.30789 3.35402 3.40015 3.44629 3.49242 3.53855 3.58468 3.63081 3.67694 3.72307 3.7692 3.81533 3.86146 3.9076 3.95373 3.99986 4.04599 4.09212 4.13825 4.18438 4.23051 4.27664 4.32277 4.36891 4.41504 4.46117 4.5073 4.55343 4.59956 4.64569 4.69182 4.73795 4.78408 4.83021 4.87635 4.92248 4.96861 5.01474 5.06087 5.107 5.15313 5.19926 5.24539 5.29152 5.33766 5.38379 5.42992 5.47605 5.52218 5.56831 5.61444 5.66057 5.7067 5.75283 5.79594 5.83904 5.88215 5.92525 5.96835 6.01146 6.05456 6.09766 6.14077 6.18387 6.22698 6.27008 6.31318 6.35629 6.39939 6.4425 6.4856 6.5287 6.57181 6.61491 6.65801 6.70112 6.74422 6.78733 6.83043 6.87353 6.91664 6.95974 7.00284 7.04595 7.08905 7.13216 7.17526 7.21836 7.26147 7.30457 7.34767 7.39078 7.43388 7.47699 7.52009 7.56319 7.6063 7.6494 7.6925 7.73561 7.77871 7.82182 7.86492 7.90802 7.95113 7.99423 8.03733 8.08044 8.12354 8.16665 8.20975 8.25285 8.29596
0.126257 0.174162 0.222068 0.269973 0.317879 0.365784 0.41369 0.461595 0.5095 0.557406 0.605311 0.653217 0.701122 0.749028 0.796933 0.844839 0.892744 0.94065 0.988555 1.03646 1.08437 1.13227 1.18018 1.22808 1.27599 1.32389 1.3718 1.4197 1.46761 1.51552 1.56342 1.61133 1.65923 1.70714 1.75504 1.80295 1.85085 1.89876 1.94666 1.99457 2.04248 2.09038 2.13829 2.18619 2.2341 2.282 2.32991 2.37781 2.42572 2.47362 2.52153 2.56944 2.61734 2.66525 2.71315 2.76106 2.80896 2.85687 2.90477 2.95268 3.00058 3.04673 3.09288 3.13902 3.18517 3.23131 3.27746 3.32361 3.36975 3.4159 3.46204 3.50819 3.55434 3.60048 3.64663 3.69277 3.73892 3.78507 3.83121 3.87736 3.9235 3.96965 4.0158 4.06194 4.10809 4.15423 4.20038 4.24653 4.29267 4.33882 4.38496 4.43111 4.47726 4.5234 4.56955 4.61569 4.66184 4.70799 4.75413 4.80028 4.84642 4.89257 4.93872 4.98486 5.03101 5.07715 5.1233 5.16945 5.21559 5.26174 5.30788 5.35403 5.40018 5.44632 5.49247 5.53861 5.58476 5.6309 5.67705 5.7232 5.76934 5.81235 5.85535 5.89836 5.94136 5.98436 6.02737 6.07037 6.11338 6.15638 6.19939 6.24239 6.28539 6.3284 6.3714 6.41441 6.45741 6.50042 6.54342 6.58642 6.62943 6.67243 6.71544 6.75844 6.80144 6.84445 6.88745 6.93046 6.97346 7.01647 7.05947 7.10247 7.14548 7.18848 7.23149 7.27449 7.3175 7.3605 7.4035 7.44651 7.48951 7.53252 7.57552 7.61853 7.66153 7.70453 7.74754 7.79054 7.83355 7.87655 7.91956 7.96256 8.00556 8.04857 8.09157 8.13458 8.17758 8.22059 8.26359 8.30659
0.136567 0.184561 0.232555 0.280549 0.328542 0.376536 0.42453 0.472524 0.520518 0.568511 0.616505 0.664499 0.712493 0.760486 0.80848 0.856474 0.904468 0.952462 1.00046 1.04845 1.09644 1.14444 1.19243 1.24042 1.28842 1.33641 1.38441 1.4324 1.48039 1.52839 1.57638 1.62437 1.67237 1.72036 1.76836 1.81635 1.86434 1.91234 1.96033 2.00832 2.05632 2.10431 2.15231 2.2003 2.24829 2.29629 2.34428 2.39228 2.44027 2.48826 2.53626 2.58425 2.63224 2.68024 2.72823 2.77623 2.82422 2.87221 2.92021 2.9682 3.01619 3.06236 3.10852 3.15468 3.20084 3.247 3.29316 3.33932 3.38548 3.43164 3.4778 3.52396 3.57013 3.61629 3.66245 3.70861 3.75477 3.80093 3.84709 3.89325 3.93941 3.98557 4.03174 4.0779 4.12406 4.17022 4.21638 4.26254 4.3087 4.35486 4.40102 4.44718 4.49334 4.53951 4.58567 4.63183 4.67799 4.72415 4.77031 4.81647 4.86263 4.90879 4.95495 5.00111 5.04728 5.09344 5.1396 5.18576 5.23192 5.27808 5.32424 5.3704 5.41656 5.46272 5.50889 5.55505 5.60121 5.64737 5.69353 5.73969 5.78585 5.82876 5.87166 5.91457 5.95747 6.00037 6.04328 6.08618 6.12909 6.17199 6.2149 6.2578 6.30071 6.34361 6.38652 6.42942 6.47233 6.51523 6.55814 6.60104 6.64395 6.68685 6.72976 6.77266 6.81556 6.85847 6.90137 6.94428 6.98718 7.03009 7.07299 7.1159 7.1588 7.20171 7.24461 7.28752 7.33042 7.37333 7.41623 7.45914 7.50204 7.54495 7.58785 7.63075 7.67366 7.71656 7.75947 7.80237 7.84528 7.88818 7.93109 7.97399 8.0169 8.0598 8.10271 8.14561 8.18852 8.23142 8.27433 8.31723
0.146878 0.19496 0.243042 0.291124 0.339206 0.387288 0.43537 0.483453 0.531535 0.579617 0.627699 0.675781 0.723863 0.771945 0.820027 0.868109 0.916191 0.964274 1.01236 1.06044 1.10852 1.1566 1.20468 1.25277 1.30085 1.34893 1.39701 1.44509 1.49318 1.54126 1.58934 1.63742 1.6855 1.73359 1.78167 1.82975 1.87783 1.92592 1.974 2.02208 2.07016 2.11824 2.16633 2.21441 2.26249 2.31057 2.35865 2.40674 2.45482 2.5029 2.55098 2.59906 2.64715 2.69523 2.74331 2.79139 2.83948 2.88756 2.93564 2.98372 3.0318 3.07798 3.12416 3.17033 3.21651 3.26268 3.30886 3.35504 3.40121 3.44739 3.49356 3.53974 3.58591 3.63209 3.67827 3.72444 3.77062 3.81679 3.86297 3.90915 3.95532 4.0015 4.04767 4.09385 4.14003 4.1862 4.23238 4.27855 4.32473 4.37091 4.41708 4.46326 4.50943 4.55561 4.60179 4.64796 4.69414 4.74031 4.78649 4.83266 4.87884 4.92502 4.97119 5.01737 5.06354 5.10972 5.1559 5.20207 5.24825 5.29442 5.3406 5.38678 5.43295 5.47913 5.5253 5.57148 5.61766 5.66383 5.71001 5.75618 5.80236 5.84516 5.88797 5.93077 5.97358 6.01639 6.05919 6.102 6.1448 6.18761 6.23041 6.27322 6.31602 6.35883 6.40163 6.44444 6.48724 6.53005 6.57285 6.61566 6.65846 6.70127 6.74407 6.78688 6.82968 6.87249 6.91529 6.9581 7.00091 7.04371 7.08652 7.12932 7.17213 7.21493 7.25774 7.30054 7.34335 7.38615 7.42896 7.47176 7.51457 7.55737 7.60018 7.64298 7.68579 7.72859 7.7714 7.8142 7.85701 7.89982 7.94262 7.98543 8.02823 8.07104 8.11384 8.15665 8.19945 8.24226 8.28506 8.32787
0.157188 0.205359 0.253529 0.3017 0.34987 0.398041 0.446211 0.494381 0.542552 0.590722 0.638893 0.687063 0.735233 0.783404 0.831574 0.879745 0.927915 0.976085 1.02426 1.07243 1.1206 1.16877 1.21694 1.26511 1.31328 1.36145 1.40962 1.45779 1.50596 1.55413 1.6023 1.65047 1.69864 1.74681 1.79498 1.84315 1.89132 1.93949 1.98766 2.03583 2.084 2.13218 2.18035 2.22852 2.27669 2.32486 2.37303 2.4212 2.46937 2.51754 2.56571 2.61388 2.66205 2.71022 2.75839 2.80656 2.85473 2.9029 2.95107 2.99924 3.04741 3.0936 3.13979 3.18599 3.23218 3.27837 3.32456 3.37075 3.41694 3.46313 3.50932 3.55551 3.6017 3.64789 3.69409 3.74028 3.78647 3.83266 3.87885 3.92504 3.97123 4.01742 4.06361 4.1098 4.15599 4.20219 4.24838 4.29457 4.34076 4.38695 4.43314 4.47933 4.52552 4.57171 4.6179 4.66409 4.71029 4.75648 4.80267 4.84886 4.89505 4.94124 4.98743 5.03362 5.07981 5.126 5.17219 5.21839 5.26458 5.31077 5.35696 5.40315 5.44934 5.49553 5.54172 5.58791 5.6341 5.68029 5.72649 5.77268 5.81887 5.86157 5.90428 5.94698 5.98969 6.0324 6.0751 6.11781 6.16051 6.20322 6.24592 6.28863 6.33134 6.37404 6.41675 6.45945 6.50216 6.54486 6.58757 6.63028 6.67298 6.71569 6.75839 6.8011 6.8438 6.88651 6.92922 6.97192 7.01463 7.05733 7.10004 7.14274 7.18545 7.22816 7.27086 7.31357 7.35627 7.39898 7.44168 7.48439 7.5271 7.5698 7.61251 7.65521 7.69792 7.74062 7.78333 7.82604 7.86874 7.91145 7.95415 7.99686 8.03956 8.08227 8.12498 8.16768 8.21039 8.25309 8.2958 8.3385
0.167499 0.215758 0.264017 0.312275 0.360534 0.408793 0.457051 0.50531 0.553569 0.601828 0.650086 0.698345 0.746604 0.794862 0.843121 0.89138 0.939639 0.987897 1.03616 1.08441 1.13267 1.18093 1.22919 1.27745 1.32571 1.37397 1.42223 1.47048 1.51874 1.567 1.61526 1.66352 1.71178 1.76004 1.8083 1.85655 1.90481 1.95307 2.00133 2.04959 2.09785 2.14611 2.19437 2.24262 2.29088 2.33914 2.3874 2.43566 2.48392 2.53218 2.58044 2.62869 2.67695 2.72521 2.77347 2.82173 2.86999 2.91825 2.9665 3.01476 3.06302 3.10923 3.15543 3.20164 3.24785 3.29405 3.34026 3.38646 3.43267 3.47888 3.52508 3.57129 3.61749 3.6637 3.7099 3.75611 3.80232 3.84852 3.89473 3.94093 3.98714 4.03335 4.07955 4.12576 4.17196 4.21817 4.26438 4.31058 4.35679 4.40299 4.4492 4.4954 4.54161 4.58782 4.63402 4.68023 4.72643 4.77264 4.81885 4.86505 4.91126 4.95746 5.00367 5.04988 5.09608 5.14229 5.18849 5.2347 5.2809 5.32711 5.37332 5.41952 5.46573 5.51193 5.55814 5.60435 5.65055 5.69676 5.74296 5.78917 5.83538 5.87798 5.92059 5.96319 6.0058 6.04841 6.09101 6.13362 6.17622 6.21883 6.26144 6.30404 6.34665 6.38926 6.43186 6.47447 6.51707 6.55968 6.60229 6.64489 6.6875 6.73011 6.77271 6.81532 6.85792 6.90053 6.94314 6.98574 7.02835 7.07095 7.11356 7.15617 7.19877 7.24138 7.28399 7.32659 7.3692 7.4118 7.45441 7.49702 7.53962 7.58223 7.62484 7.66744 7.71005 7.75265 7.79526 7.83787 7.88047 7.92308 7.96569 8.00829 8.0509 8.0935 8.13611 8.17872 8.22132 8.26393 8.30653 8.34914
0.17781 0.226157 0.274504 0.322851 0.371198 0.419545 0.467892 0.516239 0.564586 0.612933 0.66128 0.709627 0.757974 0.806321 0.854668 0.903015 0.951362 0.999709 1.04806 1.0964 1.14475 1.1931 1.24144 1.28979 1.33814 1.38649 1.43483 1.48318 1.53153 1.57987 1.62822 1.67657 1.72491 1.77326 1.82161 1.86996 1.9183 1.96665 2.015 2.06334 2.11169 2.16004 2.20839 2.25673 2.30508 2.35343 2.40177 2.45012 2.49847 2.54681 2.59516 2.64351 2.69186 2.7402 2.78855 2.8369 2.88524 2.93359 2.98194 3.03028 3.07863 3.12485 3.17107 3.21729 3.26352 3.30974 3.35596 3.40218 3.4484 3.49462 3.54084 3.58706 3.63328 3.6795 3.72572 3.77194 3.81817 3.86439 3.91061 3.95683 4.00305 4.04927 4.09549 4.14171 4.18793 4.23415 4.28037 4.3266 4.37282 4.41904 4.46526 4.51148 4.5577 4.60392 4.65014 4.69636 4.74258 4.7888 4.83502 4.88125 4.92747 4.97369 5.01991 5.06613 5.11235 5.15857 5.20479 5.25101 5.29723 5.34345 5.38967 5.4359 5.48212 5.52834 5.57456 5.62078 5.667 5.71322 5.75944 5.80566 5.85188 5.89439 5.9369 5.9794 6.02191 6.06442 6.10692 6.14943 6.19194 6.23444 6.27695 6.31946 6.36196 6.40447 6.44698 6.48948 6.53199 6.5745 6.617 6.65951 6.70202 6.74452 6.78703 6.82954 6.87204 6.91455 6.95706 6.99956 7.04207 7.08458 7.12708 7.16959 7.2121 7.2546 7.29711 7.33962 7.38212 7.42463 7.46714 7.50964 7.55215 7.59466 7.63716 7.67967 7.72218 7.76468 7.80719 7.8497 7.8922 7.93471 7.97722 8.01972 8.06223 8.10474 8.14724 8.18975 8.23226 8.27476 8.31727 8.35978
0.169706 0.217946 0.266187 0.314428 0.362668 0.410909 0.45915 0.50739 0.555631 0.603872 0.652112 0.700353 0.748593 0.796834 0.845075 0.893315 0.941556 0.989797 1.03804 1.08628 1.13452 1.18276 1.231 1.27924 1.32748 1.37572 1.42396 1.4722 1.52044 1.56868 1.61693 1.66517 1.71341 1.76165 1.80989 1.85813 1.90637 1.95461 2.00285 2.05109 2.09933 2.14757 2.19581 2.24405 2.29229 2.34053 2.38878 2.43702 2.48526 2.5335 2.58174 2.62998 2.67822 2.72646 2.7747 2.82294 2.87118 2.91942 2.96766 3.0159 3.06414 3.11036 3.15658 3.20279 3.24901 3.29522 3.34144 3.38766 3.43387 3.48009 3.5263 3.57252 3.61874 3.66495 3.71117 3.75738 3.8036 3.84982 3.89603 3.94225 3.98846 4.03468 4.08089 4.12711 4.17333 4.21954 4.26576 4.31197 4.35819 4.40441 4.45062 4.49684 4.54305 4.58927 4.63549 4.6817 4.72792 4.77413 4.82035 4.86657 4.91278 4.959 5.00521 5.05143 5.09764 5.14386 5.19008 5.23629 5.28251 5.32872 5.37494 5.42116 5.46737 5.51359 5.5598 5.60602 5.65224 5.69845 5.74467 5.79088 5.8371 5.8797 5.9223 5.9649 6.00751 6.05011 6.09271 6.13531 6.17791 6.22052 6.26312 6.30572 6.34832 6.39092 6.43352 6.47613 6.51873 6.56133 6.60393 6.64653 6.68913 6.73174 6.77434 6.81694 6.85954 6.90214 6.94474 6.98735 7.02995 7.07255 7.11515 7.15775 7.20035 7.24296 7.28556 7.32816 7.37076 7.41336 7.45597 7.49857 7.54117 7.58377 7.62637 7.66897 7.71158 7.75418 7.79678 7.83938 7.88198 7.92458 7.96719 8.00979 8.05239 8.09499 8.13759 8.18019 8.2228 8.2654 8.308 8.3506
0.161602 0.209736 0.25787 0.306005 0.354139 0.402273 0.450407 0.498542 0.546676 0.59481 0.642944 0.691079 0.739213 0.787347 0.835481 0.883616 0.93175 0.979884 1.02802 1.07615 1.12429 1.17242 1.22056 1.26869 1.31682 1.36496 1.41309 1.46123 1.50936 1.5575 1.60563 1.65376 1.7019 1.75003 1.79817 1.8463 1.89443 1.94257 1.9907 2.03884 2.08697 2.13511 2.18324 2.23137 2.27951 2.32764 2.37578 2.42391 2.47205 2.52018 2.56831 2.61645 2.66458 2.71272 2.76085 2.80899 2.85712 2.90525 2.95339 3.00152 3.04966 3.09587 3.14208 3.18829 3.2345 3.28071 3.32692 3.37313 3.41934 3.46556 3.51177 3.55798 3.60419 3.6504 3.69661 3.74282 3.78903 3.83524 3.88145 3.92767 3.97388 4.02009 4.0663 4.11251 4.15872 4.20493 4.25114 4.29735 4.34356 4.38978 4.43599 4.4822 4.52841 4.57462 4.62083 4.66704 4.71325 4.75946 4.80567 4.85189 4.8981 4.94431 4.99052 5.03673 5.08294 5.12915 5.17536 5.22157 5.26778 5.314 5.36021 5.40642 5.45263 5.49884 5.54505 5.59126 5.63747 5.68368 5.72989 5.7761 5.82232 5.86501 5.90771 5.95041 5.9931 6.0358 6.0785 6.12119 6.16389 6.20659 6.24928 6.29198 6.33468 6.37737 6.42007 6.46277 6.50546 6.54816 6.59086 6.63355 6.67625 6.71895 6.76164 6.80434 6.84704 6.88974 6.93243 6.97513 7.01783 7.06052 7.10322 7.14592 7.18861 7.23131 7.27401 7.3167 7.3594 7.4021 7.44479 7.48749 7.53019 7.57288 7.61558 7.65828 7.70097 7.74367 7.78637 7.82906 7.87176 7.91446 7.95715 7.99985 8.04255 8.08525 8.12794 8.17064 8.21334 8.25603 8.29873 8.34143
0.153498 0.201526 0.249554 0.297581 0.345609 0.393637 0.441665 0.489693 0.537721 0.585749 0.633776 0.681804 0.729832 0.77786 0.825888 0.873916 0.921944 0.969972 1.018 1.06603 1.11406 1.16208 1.21011 1.25814 1.30617 1.35419 1.40222 1.45025 1.49828 1.54631 1.59433 1.64236 1.69039 1.73842 1.78645 1.83447 1.8825 1.93053 1.97856 2.02658 2.07461 2.12264 2.17067 2.2187 2.26672 2.31475 2.36278 2.41081 2.45884 2.50686 2.55489 2.60292 2.65095 2.69897 2.747 2.79503 2.84306 2.89109 2.93911 2.98714 3.03517 3.08138 3.12758 3.17379 3.21999 3.2662 3.31241 3.35861 3.40482 3.45102 3.49723 3.54344 3.58964 3.63585 3.68205 3.72826 3.77447 3.82067 3.86688 3.91308 3.95929 4.0055 4.0517 4.09791 4.14411 4.19032 4.23653 4.28273 4.32894 4.37514 4.42135 4.46756 4.51376 4.55997 4.60618 4.65238 4.69859 4.74479 4.791 4.83721 4.88341 4.92962 4.97582 5.02203 5.06824 5.11444 5.16065 5.20685 5.25306 5.29927 5.34547 5.39168 5.43788 5.48409 5.5303 5.5765 5.62271 5.66891 5.71512 5.76133 5.80753 5.85032 5.89312 5.93591 5.9787 6.02149 6.06428 6.10707 6.14987 6.19266 6.23545 6.27824 6.32103 6.36383 6.40662 6.44941 6.4922 6.53499 6.57778 6.62058 6.66337 6.70616 6.74895 6.79174 6.83454 6.87733 6.92012 6.96291 7.0057 7.0485 7.09129 7.13408 7.17687 7.21966 7.26245 7.30525 7.34804 7.39083 7.43362 7.47641 7.51921 7.562 7.60479 7.64758 7.69037 7.73316 7.77596 7.81875 7.86154 7.90433 7.94712 7.98992 8.03271 8.0755 8.11829 8.16108 8.20387 8.24667 8.28946 8.33225
0.145394 0.193315 0.241237 0.289158 0.33708 0.385001 0.432923 0.480844 0.528766 0.576687 0.624609 0.67253 0.720452 0.768373 0.816295 0.864216 0.912137 0.960059 1.00798 1.0559 1.10382 1.15174 1.19967 1.24759 1.29551 1.34343 1.39135 1.43927 1.4872 1.53512 1.58304 1.63096 1.67888 1.7268 1.77472 1.82265 1.87057 1.91849 1.96641 2.01433 2.06225 2.11017 2.1581 2.20602 2.25394 2.30186 2.34978 2.3977 2.44562 2.49355 2.54147 2.58939 2.63731 2.68523 2.73315 2.78108 2.829 2.87692 2.92484 2.97276 3.02068 3.06688 3.11308 3.15929 3.20549 3.25169 3.29789 3.34409 3.39029 3.43649 3.48269 3.52889 3.5751 3.6213 3.6675 3.7137 3.7599 3.8061 3.8523 3.8985 3.9447 3.99091 4.03711 4.08331 4.12951 4.17571 4.22191 4.26811 4.31431 4.36051 4.40672 4.45292 4.49912 4.54532 4.59152 4.63772 4.68392 4.73012 4.77632 4.82253 4.86873 4.91493 4.96113 5.00733 5.05353 5.09973 5.14593 5.19213 5.23834 5.28454 5.33074 5.37694 5.42314 5.46934 5.51554 5.56174 5.60794 5.65414 5.70035 5.74655 5.79275 5.83564 5.87852 5.92141 5.9643 6.00718 6.05007 6.09296 6.13584 6.17873 6.22162 6.2645 6.30739 6.35028 6.39316 6.43605 6.47894 6.52183 6.56471 6.6076 6.65049 6.69337 6.73626 6.77915 6.82203 6.86492 6.90781 6.95069 6.99358 7.03647 7.07935 7.12224 7.16513 7.20802 7.2509 7.29379 7.33668 7.37956 7.42245 7.46534 7.50822 7.55111 7.594 7.63688 7.67977 7.72266 7.76554 7.80843 7.85132 7.89421 7.93709 7.97998 8.02287 8.06575 8.10864 8.15153 8.19441 8.2373 8.28019 8.32307
0.13729 0.185105 0.23292 0.280735 0.32855 0.376365 0.42418 0.471995 0.519811 0.567626 0.615441 0.663256 0.711071 0.758886 0.806701 0.854516 0.902331 0.950146 0.997961 1.04578 1.09359 1.14141 1.18922 1.23704 1.28485 1.33267 1.38048 1.4283 1.47611 1.52393 1.57174 1.61956 1.66737 1.71519 1.763 1.81082 1.85863 1.90645 1.95426 2.00208 2.04989 2.09771 2.14552 2.19334 2.24115 2.28897 2.33678 2.3846 2.43241 2.48023 2.52804 2.57586 2.62367 2.67149 2.7193 2.76712 2.81493 2.86275 2.91056 2.95838 3.0062 3.05239 3.09859 3.14478 3.19098 3.23718 3.28337 3.32957 3.37576 3.42196 3.46816 3.51435 3.56055 3.60675 3.65294 3.69914 3.74533 3.79153 3.83773 3.88392 3.93012 3.97631 4.02251 4.06871 4.1149 4.1611 4.2073 4.25349 4.29969 4.34588 4.39208 4.43828 4.48447 4.53067 4.57686 4.62306 4.66926 4.71545 4.76165 4.80785 4.85404 4.90024 4.94643 4.99263 5.03883 5.08502 5.13122 5.17741 5.22361 5.26981 5.316 5.3622 5.4084 5.45459 5.50079 5.54698 5.59318 5.63938 5.68557 5.73177 5.77796 5.82095 5.86393 5.90691 5.94989 5.99287 6.03586 6.07884 6.12182 6.1648 6.20778 6.25077 6.29375 6.33673 6.37971 6.42269 6.46568 6.50866 6.55164 6.59462 6.6376 6.68058 6.72357 6.76655 6.80953 6.85251 6.89549 6.93848 6.98146 7.02444 7.06742 7.1104 7.15339 7.19637 7.23935 7.28233 7.32531 7.3683 7.41128 7.45426 7.49724 7.54022 7.58321 7.62619 7.66917 7.71215 7.75513 7.79811 7.8411 7.88408 7.92706 7.97004 8.01302 8.05601 8.09899 8.14197 8.18495 8.22793 8.27092 8.3139
0.129186 0.176895 0.224603 0.272312 0.320021 0.367729 0.415438 0.463147 0.510855 0.558564 0.606273 0.653982 0.70169 0.749399 0.797108 0.844816 0.892525 0.940234 0.987942 1.03565 1.08336 1.13107 1.17878 1.22649 1.27419 1.3219 1.36961 1.41732 1.46503 1.51274 1.56045 1.60816 1.65586 1.70357 1.75128 1.79899 1.8467 1.89441 1.94212 1.98983 2.03753 2.08524 2.13295 2.18066 2.22837 2.27608 2.32379 2.37149 2.4192 2.46691 2.51462 2.56233 2.61004 2.65775 2.70546 2.75316 2.80087 2.84858 2.89629 2.944 2.99171 3.0379 3.08409 3.13028 3.17647 3.22266 3.26886 3.31505 3.36124 3.40743 3.45362 3.49981 3.546 3.59219 3.63838 3.68458 3.73077 3.77696 3.82315 3.86934 3.91553 3.96172 4.00791 4.05411 4.1003 4.14649 4.19268 4.23887 4.28506 4.33125 4.37744 4.42364 4.46983 4.51602 4.56221 4.6084 4.65459 4.70078 4.74697 4.79317 4.83936 4.88555 4.93174 4.97793 5.02412 5.07031 5.1165 5.16269 5.20889 5.25508 5.30127 5.34746 5.39365 5.43984 5.48603 5.53222 5.57842 5.62461 5.6708 5.71699 5.76318 5.80626 5.84933 5.89241 5.93549 5.97857 6.02164 6.06472 6.1078 6.15087 6.19395 6.23703 6.2801 6.32318 6.36626 6.40934 6.45241 6.49549 6.53857 6.58164 6.62472 6.6678 6.71087 6.75395 6.79703 6.8401 6.88318 6.92626 6.96934 7.01241 7.05549 7.09857 7.14164 7.18472 7.2278 7.27087 7.31395 7.35703 7.40011 7.44318 7.48626 7.52934 7.57241 7.61549 7.65857 7.70164 7.74472 7.7878 7.83088 7.87395 7.91703 7.96011 8.00318 8.04626 8.08934 8.13241 8.17549 8.21857 8.26165 8.30472
0.121082 0.168684 0.216287 0.263889 0.311491 0.359093 0.406696 0.454298 0.5019 0.549503 0.597105 0.644707 0.69231 0.739912 0.787514 0.835117 0.882719 0.930321 0.977924 1.02553 1.07313 1.12073 1.16833 1.21594 1.26354 1.31114 1.35874 1.40634 1.45395 1.50155 1.54915 1.59675 1.64436 1.69196 1.73956 1.78716 1.83477 1.88237 1.92997 1.97757 2.02517 2.07278 2.12038 2.16798 2.21558 2.26319 2.31079 2.35839 2.40599 2.4536 2.5012 2.5488 2.5964 2.644 2.69161 2.73921 2.78681 2.83441 2.88202 2.92962 2.97722 3.02341 3.06959 3.11578 3.16197 3.20815 3.25434 3.30052 3.34671 3.3929 3.43908 3.48527 3.53146 3.57764 3.62383 3.67001 3.7162 3.76239 3.80857 3.85476 3.90095 3.94713 3.99332 4.0395 4.08569 4.13188 4.17806 4.22425 4.27044 4.31662 4.36281 4.40899 4.45518 4.50137 4.54755 4.59374 4.63993 4.68611 4.7323 4.77849 4.82467 4.87086 4.91704 4.96323 5.00942 5.0556 5.10179 5.14798 5.19416 5.24035 5.28653 5.33272 5.37891 5.42509 5.47128 5.51747 5.56365 5.60984 5.65602 5.70221 5.7484 5.79157 5.83474 5.87791 5.92108 5.96426 6.00743 6.0506 6.09377 6.13694 6.18012 6.22329 6.26646 6.30963 6.35281 6.39598 6.43915 6.48232 6.52549 6.56867 6.61184 6.65501 6.69818 6.74135 6.78453 6.8277 6.87087 6.91404 6.95721 7.00039 7.04356 7.08673 7.1299 7.17307 7.21625 7.25942 7.30259 7.34576 7.38893 7.43211 7.47528 7.51845 7.56162 7.60479 7.64797 7.69114 7.73431 7.77748 7.82065 7.86383 7.907 7.95017 7.99334 8.03651 8.07969 8.12286 8.16603 8.2092 8.25237 8.29555
0.112978 0.160474 0.20797 0.255466 0.302962 0.350458 0.397953 0.445449 0.492945 0.540441 0.587937 0.635433 0.682929 0.730425 0.777921 0.825417 0.872913 0.920409 0.967905 1.0154 1.0629 1.11039 1.15789 1.20538 1.25288 1.30038 1.34787 1.39537 1.44286 1.49036 1.53786 1.58535 1.63285 1.68034 1.72784 1.77534 1.82283 1.87033 1.91782 1.96532 2.01281 2.06031 2.10781 2.1553 2.2028 2.25029 2.29779 2.34529 2.39278 2.44028 2.48777 2.53527 2.58277 2.63026 2.67776 2.72525 2.77275 2.82025 2.86774 2.91524 2.96273 3.00891 3.0551 3.10128 3.14746 3.19364 3.23982 3.286 3.33218 3.37837 3.42455 3.47073 3.51691 3.56309 3.60927 3.65545 3.70163 3.74782 3.794 3.84018 3.88636 3.93254 3.97872 4.0249 4.07109 4.11727 4.16345 4.20963 4.25581 4.30199 4.34817 4.39435 4.44054 4.48672 4.5329 4.57908 4.62526 4.67144 4.71762 4.7638 4.80999 4.85617 4.90235 4.94853 4.99471 5.04089 5.08707 5.13326 5.17944 5.22562 5.2718 5.31798 5.36416 5.41034 5.45652 5.50271 5.54889 5.59507 5.64125 5.68743 5.73361 5.77688 5.82015 5.86341 5.90668 5.94995 5.99322 6.03648 6.07975 6.12302 6.16628 6.20955 6.25282 6.29608 6.33935 6.38262 6.42589 6.46915 6.51242 6.55569 6.59895 6.64222 6.68549 6.72876 6.77202 6.81529 6.85856 6.90182 6.94509 6.98836 7.03163 7.07489 7.11816 7.16143 7.20469 7.24796 7.29123 7.33449 7.37776 7.42103 7.4643 7.50756 7.55083 7.5941 7.63736 7.68063 7.7239 7.76717 7.81043 7.8537 7.89697 7.94023 7.9835 8.02677 8.07004 8.1133 8.15657 8.19984 8.2431 8.28637
0.104874 0.152264 0.199653 0.247043 0.294432 0.341822 0.389211 0.436601 0.48399 0.53138 0.578769 0.626159 0.673548 0.720938 0.768327 0.815717 0.863106 0.910496 0.957886 1.00528 1.05266 1.10005 1.14744 1.19483 1.24222 1.28961 1.337 1.38439 1.43178 1.47917 1.52656 1.57395 1.62134 1.66873 1.71612 1.76351 1.8109 1.85829 1.90568 1.95307 2.00046 2.04784 2.09523 2.14262 2.19001 2.2374 2.28479 2.33218 2.37957 2.42696 2.47435 2.52174 2.56913 2.61652 2.66391 2.7113 2.75869 2.80608 2.85347 2.90086 2.94825 2.99442 3.0406 3.08678 3.13295 3.17913 3.2253 3.27148 3.31766 3.36383 3.41001 3.45619 3.50236 3.54854 3.59472 3.64089 3.68707 3.73324 3.77942 3.8256 3.87177 3.91795 3.96413 4.0103 4.05648 4.10266 4.14883 4.19501 4.24118 4.28736 4.33354 4.37971 4.42589 4.47207 4.51824 4.56442 4.6106 4.65677 4.70295 4.74912 4.7953 4.84148 4.88765 4.93383 4.98001 5.02618 5.07236 5.11854 5.16471 5.21089 5.25707 5.30324 5.34942 5.39559 5.44177 5.48795 5.53412 5.5803 5.62648 5.67265 5.71883 5.76219 5.80555 5.84892 5.89228 5.93564 5.979 6.02236 6.06573 6.10909 6.15245 6.19581 6.23917 6.28254 6.3259 6.36926 6.41262 6.45599 6.49935 6.54271 6.58607 6.62943 6.6728 6.71616 6.75952 6.80288 6.84624 6.88961 6.93297 6.97633 7.01969 7.06306 7.10642 7.14978 7.19314 7.2365 7.27987 7.32323 7.36659 7.40995 7.45331 7.49668 7.54004 7.5834 7.62676 7.67012 7.71349 7.75685 7.80021 7.84357 7.88694 7.9303 7.97366 8.01702 8.06038 8.10375 8.14711 8.19047 8.23383 8.27719
0.09677 0.144053 0.191336 0.238619 0.285903 0.333186 0.380469 0.427752 0.475035 0.522318 0.569601 0.616885 0.664168 0.711451 0.758734 0.806017 0.8533 0.900583 0.947867 0.99515 1.04243 1.08972 1.137 1.18428 1.23157 1.27885 1.32613 1.37341 1.4207 1.46798 1.51526 1.56255 1.60983 1.65711 1.7044 1.75168 1.79896 1.84625 1.89353 1.94081 1.9881 2.03538 2.08266 2.12995 2.17723 2.22451 2.27179 2.31908 2.36636 2.41364 2.46093 2.50821 2.55549 2.60278 2.65006 2.69734 2.74463 2.79191 2.83919 2.88648 2.93376 2.97993 3.0261 3.07227 3.11844 3.16462 3.21079 3.25696 3.30313 3.3493 3.39547 3.44164 3.48782 3.53399 3.58016 3.62633 3.6725 3.71867 3.76484 3.81102 3.85719 3.90336 3.94953 3.9957 4.04187 4.08804 4.13422 4.18039 4.22656 4.27273 4.3189 4.36507 4.41124 4.45742 4.50359 4.54976 4.59593 4.6421 4.68827 4.73444 4.78062 4.82679 4.87296 4.91913 4.9653 5.01147 5.05765 5.10382 5.14999 5.19616 5.24233 5.2885 5.33467 5.38085 5.42702 5.47319 5.51936 5.56553 5.6117 5.65787 5.70405 5.7475 5.79096 5.83442 5.87787 5.92133 5.96479 6.00825 6.0517 6.09516 6.13862 6.18207 6.22553 6.26899 6.31245 6.3559 6.39936 6.44282 6.48627 6.52973 6.57319 6.61665 6.6601 6.70356 6.74702 6.79047 6.83393 6.87739 6.92085 6.9643 7.00776 7.05122 7.09467 7.13813 7.18159 7.22505 7.2685 7.31196 7.35542 7.39888 7.44233 7.48579 7.52925 7.5727 7.61616 7.65962 7.70308 7.74653 7.78999 7.83345 7.8769 7.92036 7.96382 8.00728 8.05073 8.09419 8.13765 8.1811 8.22456 8.26802
0.0886661 0.135843 0.18302 0.230196 0.277373 0.32455 0.371727 0.418903 0.46608 0.513257 0.560434 0.60761 0.654787 0.701964 0.749141 0.796317 0.843494 0.890671 0.937848 0.985024 1.0322 1.07938 1.12655 1.17373 1.22091 1.26808 1.31526 1.36244 1.40962 1.45679 1.50397 1.55115 1.59832 1.6455 1.69268 1.73985 1.78703 1.83421 1.88138 1.92856 1.97574 2.02291 2.07009 2.11727 2.16444 2.21162 2.2588 2.30597 2.35315 2.40033 2.4475 2.49468 2.54186 2.58903 2.63621 2.68339 2.73056 2.77774 2.82492 2.87209 2.91927 2.96544 3.0116 3.05777 3.10394 3.1501 3.19627 3.24244 3.2886 3.33477 3.38094 3.4271 3.47327 3.51944 3.5656 3.61177 3.65794 3.7041 3.75027 3.79643 3.8426 3.88877 3.93493 3.9811 4.02727 4.07343 4.1196 4.16577 4.21193 4.2581 4.30427 4.35043 4.3966 4.44277 4.48893 4.5351 4.58127 4.62743 4.6736 4.71976 4.76593 4.8121 4.85826 4.90443 4.9506 4.99676 5.04293 5.0891 5.13526 5.18143 5.2276 5.27376 5.31993 5.3661 5.41226 5.45843 5.5046 5.55076 5.59693 5.64309 5.68926 5.73281 5.77637 5.81992 5.86347 5.90702 5.95057 5.99413 6.03768 6.08123 6.12478 6.16834 6.21189 6.25544 6.29899 6.34254 6.3861 6.42965 6.4732 6.51675 6.56031 6.60386 6.64741 6.69096 6.73451 6.77807 6.82162 6.86517 6.90872 6.95228 6.99583 7.03938 7.08293 7.12648 7.17004 7.21359 7.25714 7.30069 7.34425 7.3878 7.43135 7.4749 7.51846 7.56201 7.60556 7.64911 7.69266 7.73622 7.77977 7.82332 7.86687 7.91043 7.95398 7.99753 8.04108 8.08463 8.12819 8.17174 8.21529 8.25884
0.0805621 0.127632 0.174703 0.221773 0.268844 0.315914 0.362984 0.410055 0.457125 0.504195 0.551266 0.598336 0.645406 0.692477 0.739547 0.786618 0.833688 0.880758 0.927829 0.974899 1.02197 1.06904 1.11611 1.16318 1.21025 1.25732 1.30439 1.35146 1.39853 1.4456 1.49267 1.53974 1.58681 1.63388 1.68095 1.72802 1.7751 1.82217 1.86924 1.91631 1.96338 2.01045 2.05752 2.10459 2.15166 2.19873 2.2458 2.29287 2.33994 2.38701 2.43408 2.48115 2.52822 2.57529 2.62236 2.66943 2.7165 2.76357 2.81064 2.85771 2.90478 2.95095 2.99711 3.04327 3.08943 3.13559 3.18175 3.22791 3.27408 3.32024 3.3664 3.41256 3.45872 3.50488 3.55105 3.59721 3.64337 3.68953 3.73569 3.78185 3.82802 3.87418 3.92034 3.9665 4.01266 4.05882 4.10498 4.15115 4.19731 4.24347 4.28963 4.33579 4.38195 4.42812 4.47428 4.52044 4.5666 4.61276 4.65892 4.70508 4.75125 4.79741 4.84357 4.88973 4.93589 4.98205 5.02822 5.07438 5.12054 5.1667 5.21286 5.25902 5.30519 5.35135 5.39751 5.44367 5.48983 5.53599 5.58215 5.62832 5.67448 5.71812 5.76177 5.80542 5.84907 5.89271 5.93636 5.98001 6.02366 6.0673 6.11095 6.1546 6.19824 6.24189 6.28554 6.32919 6.37283 6.41648 6.46013 6.50378 6.54742 6.59107 6.63472 6.67837 6.72201 6.76566 6.80931 6.85295 6.8966 6.94025 6.9839 7.02754 7.07119 7.11484 7.15849 7.20213 7.24578 7.28943 7.33307 7.37672 7.42037 7.46402 7.50766 7.55131 7.59496 7.63861 7.68225 7.7259 7.76955 7.81319 7.85684 7.90049 7.94414 7.98778 8.03143 8.07508 8.11873 8.16237 8.20602 8.24967
0.0724581 0.119422 0.166386 0.21335 0.260314 0.307278 0.354242 0.401206 0.44817 0.495134 0.542098 0.589062 0.636026 0.68299 0.729954 0.776918 0.823882 0.870846 0.91781 0.964774 1.01174 1.0587 1.10567 1.15263 1.19959 1.24656 1.29352 1.34049 1.38745 1.43441 1.48138 1.52834 1.57531 1.62227 1.66923 1.7162 1.76316 1.81013 1.85709 1.90405 1.95102 1.99798 2.04495 2.09191 2.13887 2.18584 2.2328 2.27976 2.32673 2.37369 2.42066 2.46762 2.51458 2.56155 2.60851 2.65548 2.70244 2.7494 2.79637 2.84333 2.8903 2.93645 2.98261 3.02877 3.07492 3.12108 3.16724 3.21339 3.25955 3.30571 3.35186 3.39802 3.44418 3.49033 3.53649 3.58265 3.6288 3.67496 3.72112 3.76727 3.81343 3.85959 3.90574 3.9519 3.99806 4.04421 4.09037 4.13653 4.18268 4.22884 4.275 4.32115 4.36731 4.41347 4.45962 4.50578 4.55193 4.59809 4.64425 4.6904 4.73656 4.78272 4.82887 4.87503 4.92119 4.96734 5.0135 5.05966 5.10581 5.15197 5.19813 5.24428 5.29044 5.3366 5.38275 5.42891 5.47507 5.52122 5.56738 5.61354 5.65969 5.70344 5.74718 5.79092 5.83466 5.87841 5.92215 5.96589 6.00963 6.05337 6.09712 6.14086 6.1846 6.22834 6.27209 6.31583 6.35957 6.40331 6.44706 6.4908 6.53454 6.57828 6.62203 6.66577 6.70951 6.75325 6.79699 6.84074 6.88448 6.92822 6.97196 7.01571 7.05945 7.10319 7.14693 7.19068 7.23442 7.27816 7.3219 7.36564 7.40939 7.45313 7.49687 7.54061 7.58436 7.6281 7.67184 7.71558 7.75933 7.80307 7.84681 7.89055 7.93429 7.97804 8.02178 8.06552 8.10926 8.15301 8.19675 8.24049
0.0643542 0.111212 0.158069 0.204927 0.251784 0.298642 0.3455 0.392357 0.439215 0.486072 0.53293 0.579788 0.626645 0.673503 0.72036 0.767218 0.814076 0.860933 0.907791 0.954648 1.00151 1.04836 1.09522 1.14208 1.18894 1.23579 1.28265 1.32951 1.37637 1.42322 1.47008 1.51694 1.5638 1.61065 1.65751 1.70437 1.75123 1.79808 1.84494 1.8918 1.93866 1.98552 2.03237 2.07923 2.12609 2.17295 2.2198 2.26666 2.31352 2.36038 2.40723 2.45409 2.50095 2.54781 2.59466 2.64152 2.68838 2.73524 2.78209 2.82895 2.87581 2.92196 2.96811 3.01426 3.06042 3.10657 3.15272 3.19887 3.24502 3.29117 3.33733 3.38348 3.42963 3.47578 3.52193 3.56808 3.61424 3.66039 3.70654 3.75269 3.79884 3.84499 3.89115 3.9373 3.98345 4.0296 4.07575 4.1219 4.16806 4.21421 4.26036 4.30651 4.35266 4.39881 4.44497 4.49112 4.53727 4.58342 4.62957 4.67572 4.72188 4.76803 4.81418 4.86033 4.90648 4.95263 4.99879 5.04494 5.09109 5.13724 5.18339 5.22954 5.2757 5.32185 5.368 5.41415 5.4603 5.50645 5.55261 5.59876 5.64491 5.68875 5.73258 5.77642 5.82026 5.8641 5.90793 5.95177 5.99561 6.03945 6.08328 6.12712 6.17096 6.2148 6.25863 6.30247 6.34631 6.39015 6.43398 6.47782 6.52166 6.56549 6.60933 6.65317 6.69701 6.74084 6.78468 6.82852 6.87236 6.91619 6.96003 7.00387 7.04771 7.09154 7.13538 7.17922 7.22306 7.26689 7.31073 7.35457 7.39841 7.44224 7.48608 7.52992 7.57375 7.61759 7.66143 7.70527 7.7491 7.79294 7.83678 7.88062 7.92445 7.96829 8.01213 8.05597 8.0998 8.14364 8.18748 8.23132
0.0562502 0.103001 0.149753 0.196504 0.243255 0.290006 0.336757 0.383509 0.43026 0.477011 0.523762 0.570513 0.617265 0.664016 0.710767 0.757518 0.804269 0.851021 0.897772 0.944523 0.991274 1.03803 1.08478 1.13153 1.17828 1.22503 1.27178 1.31853 1.36528 1.41203 1.45879 1.50554 1.55229 1.59904 1.64579 1.69254 1.73929 1.78604 1.8328 1.87955 1.9263 1.97305 2.0198 2.06655 2.1133 2.16005 2.20681 2.25356 2.30031 2.34706 2.39381 2.44056 2.48731 2.53406 2.58081 2.62757 2.67432 2.72107 2.76782 2.81457 2.86132 2.90747 2.95362 2.99976 3.04591 3.09206 3.1382 3.18435 3.2305 3.27664 3.32279 3.36894 3.41508 3.46123 3.50738 3.55352 3.59967 3.64582 3.69196 3.73811 3.78426 3.8304 3.87655 3.9227 3.96884 4.01499 4.06114 4.10728 4.15343 4.19958 4.24572 4.29187 4.33802 4.38416 4.43031 4.47646 4.5226 4.56875 4.6149 4.66104 4.70719 4.75334 4.79948 4.84563 4.89178 4.93793 4.98407 5.03022 5.07637 5.12251 5.16866 5.21481 5.26095 5.3071 5.35325 5.39939 5.44554 5.49169 5.53783 5.58398 5.63013 5.67406 5.71799 5.76192 5.80586 5.84979 5.89372 5.93765 5.98159 6.02552 6.06945 6.11338 6.15732 6.20125 6.24518 6.28911 6.33305 6.37698 6.42091 6.46484 6.50877 6.55271 6.59664 6.64057 6.6845 6.72844 6.77237 6.8163 6.86023 6.90417 6.9481 6.99203 7.03596 7.0799 7.12383 7.16776 7.21169 7.25563 7.29956 7.34349 7.38742 7.43136 7.47529 7.51922 7.56315 7.60709 7.65102 7.69495 7.73888 7.78282 7.82675 7.87068 7.91461 7.95854 8.00248 8.04641 8.09034 8.13427 8.17821 8.22214
0.0481462 0.094791 0.141436 0.188081 0.234725 0.28137 0.328015 0.37466 0.421305 0.467949 0.514594 0.561239 0.607884 0.654529 0.701174 0.747818 0.794463 0.841108 0.887753 0.934398 0.981042 1.02769 1.07433 1.12098 1.16762 1.21427 1.26091 1.30756 1.3542 1.40085 1.44749 1.49414 1.54078 1.58742 1.63407 1.68071 1.72736 1.774 1.82065 1.86729 1.91394 1.96058 2.00723 2.05387 2.10052 2.14716 2.19381 2.24045 2.2871 2.33374 2.38039 2.42703 2.47368 2.52032 2.56697 2.61361 2.66026 2.7069 2.75354 2.80019 2.84683 2.89298 2.93912 2.98526 3.0314 3.07754 3.12369 3.16983 3.21597 3.26211 3.30825 3.35439 3.40054 3.44668 3.49282 3.53896 3.5851 3.63125 3.67739 3.72353 3.76967 3.81581 3.86195 3.9081 3.95424 4.00038 4.04652 4.09266 4.1388 4.18495 4.23109 4.27723 4.32337 4.36951 4.41566 4.4618 4.50794 4.55408 4.60022 4.64636 4.69251 4.73865 4.78479 4.83093 4.87707 4.92322 4.96936 5.0155 5.06164 5.10778 5.15392 5.20007 5.24621 5.29235 5.33849 5.38463 5.43078 5.47692 5.52306 5.5692 5.61534 5.65937 5.7034 5.74742 5.79145 5.83548 5.87951 5.92353 5.96756 6.01159 6.05562 6.09964 6.14367 6.1877 6.23173 6.27575 6.31978 6.36381 6.40784 6.45186 6.49589 6.53992 6.58395 6.62797 6.672 6.71603 6.76006 6.80408 6.84811 6.89214 6.93617 6.98019 7.02422 7.06825 7.11228 7.1563 7.20033 7.24436 7.28839 7.33241 7.37644 7.42047 7.4645 7.50852 7.55255 7.59658 7.64061 7.68463 7.72866 7.77269 7.81672 7.86074 7.90477 7.9488 7.99283 8.03685 8.08088 8.12491 8.16894 8.21296
0.0400423 0.0865807 0.133119 0.179658 0.226196 0.272734 0.319273 0.365811 0.41235 0.458888 0.505426 0.551965 0.598503 0.645042 0.69158 0.738119 0.784657 0.831195 0.877734 0.924272 0.970811 1.01735 1.06389 1.11043 1.15696 1.2035 1.25004 1.29658 1.34312 1.38966 1.43619 1.48273 1.52927 1.57581 1.62235 1.66889 1.71543 1.76196 1.8085 1.85504 1.90158 1.94812 1.99466 2.04119 2.08773 2.13427 2.18081 2.22735 2.27389 2.32042 2.36696 2.4135 2.46004 2.50658 2.55312 2.59966 2.64619 2.69273 2.73927 2.78581 2.83235 2.87848 2.92462 2.97076 3.01689 3.06303 3.10917 3.15531 3.20144 3.24758 3.29372 3.33985 3.38599 3.43213 3.47826 3.5244 3.57054 3.61667 3.66281 3.70895 3.75508 3.80122 3.84736 3.89349 3.93963 3.98577 4.03191 4.07804 4.12418 4.17032 4.21645 4.26259 4.30873 4.35486 4.401 4.44714 4.49327 4.53941 4.58555 4.63168 4.67782 4.72396 4.7701 4.81623 4.86237 4.90851 4.95464 5.00078 5.04692 5.09305 5.13919 5.18533 5.23146 5.2776 5.32374 5.36987 5.41601 5.46215 5.50828 5.55442 5.60056 5.64468 5.6888 5.73293 5.77705 5.82117 5.86529 5.90942 5.95354 5.99766 6.04178 6.08591 6.13003 6.17415 6.21827 6.2624 6.30652 6.35064 6.39476 6.43889 6.48301 6.52713 6.57125 6.61538 6.6595 6.70362 6.74774 6.79187 6.83599 6.88011 6.92423 6.96836 7.01248 7.0566 7.10072 7.14485 7.18897 7.23309 7.27721 7.32134 7.36546 7.40958 7.4537 7.49783 7.54195 7.58607 7.63019 7.67432 7.71844 7.76256 7.80668 7.85081 7.89493 7.93905 7.98318 8.0273 8.07142 8.11554 8.15967 8.20379
0.0319383 0.0783703 0.124802 0.171234 0.217666 0.264098 0.31053 0.356962 0.403395 0.449827 0.496259 0.542691 0.589123 0.635555 0.681987 0.728419 0.774851 0.821283 0.867715 0.914147 0.960579 1.00701 1.05344 1.09987 1.14631 1.19274 1.23917 1.2856 1.33204 1.37847 1.4249 1.47133 1.51776 1.5642 1.61063 1.65706 1.70349 1.74992 1.79636 1.84279 1.88922 1.93565 1.98208 2.02852 2.07495 2.12138 2.16781 2.21424 2.26068 2.30711 2.35354 2.39997 2.4464 2.49284 2.53927 2.5857 2.63213 2.67856 2.725 2.77143 2.81786 2.86399 2.91012 2.95626 3.00239 3.04852 3.09465 3.14078 3.18692 3.23305 3.27918 3.32531 3.37144 3.41757 3.46371 3.50984 3.55597 3.6021 3.64823 3.69437 3.7405 3.78663 3.83276 3.87889 3.92503 3.97116 4.01729 4.06342 4.10955 4.15569 4.20182 4.24795 4.29408 4.34021 4.38634 4.43248 4.47861 4.52474 4.57087 4.617 4.66314 4.70927 4.7554 4.80153 4.84766 4.8938 4.93993 4.98606 5.03219 5.07832 5.12446 5.17059 5.21672 5.26285 5.30898 5.35512 5.40125 5.44738 5.49351 5.53964 5.58577 5.62999 5.67421 5.71843 5.76265 5.80686 5.85108 5.8953 5.93952 5.98373 6.02795 6.07217 6.11639 6.1606 6.20482 6.24904 6.29326 6.33747 6.38169 6.42591 6.47013 6.51434 6.55856 6.60278 6.647 6.69121 6.73543 6.77965 6.82387 6.86808 6.9123 6.95652 7.00074 7.04495 7.08917 7.13339 7.17761 7.22183 7.26604 7.31026 7.35448 7.3987 7.44291 7.48713 7.53135 7.57557 7.61978 7.664 7.70822 7.75244 7.79665 7.84087 7.88509 7.92931 7.97352 8.01774 8.06196 8.10618 8.15039 8.19461
0.0238343 0.07016 0.116486 0.162811 0.209137 0.255463 0.301788 0.348114 0.394439 0.440765 0.487091 0.533416 0.579742 0.626068 0.672393 0.718719 0.765045 0.81137 0.857696 0.904021 0.950347 0.996673 1.043 1.08932 1.13565 1.18198 1.2283 1.27463 1.32095 1.36728 1.4136 1.45993 1.50625 1.55258 1.59891 1.64523 1.69156 1.73788 1.78421 1.83053 1.87686 1.92319 1.96951 2.01584 2.06216 2.10849 2.15481 2.20114 2.24746 2.29379 2.34012 2.38644 2.43277 2.47909 2.52542 2.57174 2.61807 2.6644 2.71072 2.75705 2.80337 2.8495 2.89563 2.94175 2.98788 3.03401 3.08013 3.12626 3.17239 3.21852 3.26464 3.31077 3.3569 3.40302 3.44915 3.49528 3.5414 3.58753 3.63366 3.67979 3.72591 3.77204 3.81817 3.86429 3.91042 3.95655 4.00267 4.0488 4.09493 4.14105 4.18718 4.23331 4.27944 4.32556 4.37169 4.41782 4.46394 4.51007 4.5562 4.60232 4.64845 4.69458 4.74071 4.78683 4.83296 4.87909 4.92521 4.97134 5.01747 5.06359 5.10972 5.15585 5.20198 5.2481 5.29423 5.34036 5.38648 5.43261 5.47874 5.52486 5.57099 5.6153 5.65962 5.70393 5.74824 5.79255 5.83687 5.88118 5.92549 5.9698 6.01412 6.05843 6.10274 6.14706 6.19137 6.23568 6.27999 6.32431 6.36862 6.41293 6.45724 6.50156 6.54587 6.59018 6.63449 6.67881 6.72312 6.76743 6.81174 6.85606 6.90037 6.94468 6.98899 7.03331 7.07762 7.12193 7.16625 7.21056 7.25487 7.29918 7.3435 7.38781 7.43212 7.47643 7.52075 7.56506 7.60937 7.65368 7.698 7.74231 7.78662 7.83093 7.87525 7.91956 7.96387 8.00819 8.0525 8.09681 8.14112 8.18544
0.0157304 0.0619496 0.108169 0.154388 0.200607 0.246827 0.293046 0.339265 0.385484 0.431704 0.477923 0.524142 0.570361 0.616581 0.6628 0.709019 0.755238 0.801458 0.847677 0.893896 0.940115 0.986335 1.03255 1.07877 1.12499 1.17121 1.21743 1.26365 1.30987 1.35609 1.40231 1.44853 1.49475 1.54097 1.58718 1.6334 1.67962 1.72584 1.77206 1.81828 1.8645 1.91072 1.95694 2.00316 2.04938 2.0956 2.14182 2.18804 2.23425 2.28047 2.32669 2.37291 2.41913 2.46535 2.51157 2.55779 2.60401 2.65023 2.69645 2.74267 2.78889 2.83501 2.88113 2.92725 2.97337 3.0195 3.06562 3.11174 3.15786 3.20398 3.25011 3.29623 3.34235 3.38847 3.43459 3.48072 3.52684 3.57296 3.61908 3.6652 3.71133 3.75745 3.80357 3.84969 3.89581 3.94194 3.98806 4.03418 4.0803 4.12642 4.17255 4.21867 4.26479 4.31091 4.35703 4.40316 4.44928 4.4954 4.54152 4.58764 4.63377 4.67989 4.72601 4.77213 4.81825 4.86438 4.9105 4.95662 5.00274 5.04886 5.09499 5.14111 5.18723 5.23335 5.27947 5.3256 5.37172 5.41784 5.46396 5.51009 5.55621 5.60061 5.64502 5.68943 5.73384 5.77825 5.82265 5.86706 5.91147 5.95588 6.00028 6.04469 6.0891 6.13351 6.17791 6.22232 6.26673 6.31114 6.35555 6.39995 6.44436 6.48877 6.53318 6.57758 6.62199 6.6664 6.71081 6.75521 6.79962 6.84403 6.88844 6.93285 6.97725 7.02166 7.06607 7.11048 7.15488 7.19929 7.2437 7.28811 7.33251 7.37692 7.42133 7.46574 7.51014 7.55455 7.59896 7.64337 7.68778 7.73218 7.77659 7.821 7.86541 7.90981 7.95422 7.99863 8.04304 8.08744 8.13185 8.17626
0.00762638 0.0537392 0.0998521 0.145965 0.192078 0.238191 0.284304 0.330416 0.376529 0.422642 0.468755 0.514868 0.560981 0.607094 0.653206 0.699319 0.745432 0.791545 0.837658 0.883771 0.929884 0.975996 1.02211 1.06822 1.11434 1.16045 1.20656 1.25267 1.29879 1.3449 1.39101 1.43713 1.48324 1.52935 1.57546 1.62158 1.66769 1.7138 1.75992 1.80603 1.85214 1.89825 1.94437 1.99048 2.03659 2.08271 2.12882 2.17493 2.22104 2.26716 2.31327 2.35938 2.4055 2.45161 2.49772 2.54383 2.58995 2.63606 2.68217 2.72829 2.7744 2.82052 2.86663 2.91275 2.95887 3.00498 3.0511 3.09722 3.14333 3.18945 3.23557 3.28169 3.3278 3.37392 3.42004 3.46615 3.51227 3.55839 3.60451 3.65062 3.69674 3.74286 3.78897 3.83509 3.88121 3.92733 3.97344 4.01956 4.06568 4.11179 4.15791 4.20403 4.25014 4.29626 4.34238 4.3885 4.43461 4.48073 4.52685 4.57296 4.61908 4.6652 4.71132 4.75743 4.80355 4.84967 4.89578 4.9419 4.98802 5.03414 5.08025 5.12637 5.17249 5.2186 5.26472 5.31084 5.35695 5.40307 5.44919 5.49531 5.54142 5.58593 5.63043 5.67493 5.71943 5.76394 5.80844 5.85294 5.89745 5.94195 5.98645 6.03095 6.07546 6.11996 6.16446 6.20896 6.25347 6.29797 6.34247 6.38698 6.43148 6.47598 6.52048 6.56499 6.60949 6.65399 6.69849 6.743 6.7875 6.832 6.87651 6.92101 6.96551 7.01001 7.05452 7.09902 7.14352 7.18802 7.23253 7.27703 7.32153 7.36604 7.41054 7.45504 7.49954 7.54405 7.58855 7.63305 7.67755 7.72206 7.76656 7.81106 7.85557 7.90007 7.94457 7.98907 8.03358 8.07808 8.12258 8.16708
-0.000477584 0.0455289 0.0915354 0.137542 0.183548 0.229555 0.275561 0.321568 0.367574 0.413581 0.459587 0.505594 0.5516 0.597607 0.643613 0.689619 0.735626 0.781632 0.827639 0.873645 0.919652 0.965658 1.01166 1.05767 1.10368 1.14968 1.19569 1.2417 1.2877 1.33371 1.37972 1.42572 1.47173 1.51774 1.56374 1.60975 1.65576 1.70176 1.74777 1.79377 1.83978 1.88579 1.93179 1.9778 2.02381 2.06981 2.11582 2.16183 2.20783 2.25384 2.29985 2.34585 2.39186 2.43787 2.48387 2.52988 2.57588 2.62189 2.6679 2.7139 2.75991 2.80602 2.85213 2.89825 2.94436 2.99047 3.03658 3.0827 3.12881 3.17492 3.22103 3.26714 3.31326 3.35937 3.40548 3.45159 3.49771 3.54382 3.58993 3.63604 3.68215 3.72827 3.77438 3.82049 3.8666 3.91271 3.95883 4.00494 4.05105 4.09716 4.14328 4.18939 4.2355 4.28161 4.32772 4.37384 4.41995 4.46606 4.51217 4.55828 4.6044 4.65051 4.69662 4.74273 4.78885 4.83496 4.88107 4.92718 4.97329 5.01941 5.06552 5.11163 5.15774 5.20385 5.24997 5.29608 5.34219 5.3883 5.43442 5.48053 5.52664 5.57124 5.61583 5.66043 5.70503 5.74963 5.79423 5.83882 5.88342 5.92802 5.97262 6.01721 6.06181 6.10641 6.15101 6.19561 6.2402 6.2848 6.3294 6.374 6.41859 6.46319 6.50779 6.55239 6.59699 6.64158 6.68618 6.73078 6.77538 6.81998 6.86457 6.90917 6.95377 6.99837 7.04296 7.08756 7.13216 7.17676 7.22136 7.26595 7.31055 7.35515 7.39975 7.44434 7.48894 7.53354 7.57814 7.62274 7.66733 7.71193 7.75653 7.80113 7.84572 7.89032 7.93492 7.97952 8.02412 8.06871 8.11331 8.15791
-0.00858155 0.0373185 0.0832186 0.129119 0.175019 0.220919 0.266819 0.312719 0.358619 0.404519 0.450419 0.496319 0.542219 0.58812 0.63402 0.67992 0.72582 0.77172 0.81762 0.86352 0.90942 0.95532 1.00122 1.04712 1.09302 1.13892 1.18482 1.23072 1.27662 1.32252 1.36842 1.41432 1.46022 1.50612 1.55202 1.59792 1.64382 1.68972 1.73562 1.78152 1.82742 1.87332 1.91922 1.96512 2.01102 2.05692 2.10282 2.14872 2.19462 2.24052 2.28642 2.33232 2.37822 2.42412 2.47002 2.51592 2.56182 2.60772 2.65362 2.69952 2.74542 2.79153 2.83764 2.88374 2.92985 2.97596 3.02207 3.06817 3.11428 3.16039 3.2065 3.2526 3.29871 3.34482 3.39092 3.43703 3.48314 3.52925 3.57535 3.62146 3.66757 3.71367 3.75978 3.80589 3.852 3.8981 3.94421 3.99032 4.03643 4.08253 4.12864 4.17475 4.22085 4.26696 4.31307 4.35918 4.40528 4.45139 4.4975 4.5436 4.58971 4.63582 4.68193 4.72803 4.77414 4.82025 4.86635 4.91246 4.95857 5.00468 5.05078 5.09689 5.143 5.18911 5.23521 5.28132 5.32743 5.37353 5.41964 5.46575 5.51186 5.55655 5.60124 5.64593 5.69063 5.73532 5.78001 5.82471 5.8694 5.91409 5.95878 6.00348 6.04817 6.09286 6.13756 6.18225 6.22694 6.27163 6.31633 6.36102 6.40571 6.45041 6.4951 6.53979 6.58448 6.62918 6.67387 6.71856 6.76325 6.80795 6.85264 6.89733 6.94203 6.98672 7.03141 7.0761 7.1208 7.16549 7.21018 7.25488 7.29957 7.34426 7.38895 7.43365 7.47834 7.52303 7.56773 7.61242 7.65711 7.7018 7.7465 7.79119 7.83588 7.88058 7.92527 7.96996 8.01465 8.05935 8.10404 8.14873
-0.0166855 0.0291082 0.0749019 0.120696 0.166489 0.212283 0.258077 0.30387 0.349664 0.395458 0.441251 0.487045 0.532839 0.578632 0.624426 0.67022 0.716014 0.761807 0.807601 0.853395 0.899188 0.944982 0.990776 1.03657 1.08236 1.12816 1.17395 1.21974 1.26554 1.31133 1.35713 1.40292 1.44871 1.49451 1.5403 1.58609 1.63189 1.67768 1.72347 1.76927 1.81506 1.86086 1.90665 1.95244 1.99824 2.04403 2.08982 2.13562 2.18141 2.22721 2.273 2.31879 2.36459 2.41038 2.45617 2.50197 2.54776 2.59355 2.63935 2.68514 2.73094 2.77704 2.82314 2.86924 2.91535 2.96145 3.00755 3.05365 3.09975 3.14586 3.19196 3.23806 3.28416 3.33027 3.37637 3.42247 3.46857 3.51467 3.56078 3.60688 3.65298 3.69908 3.74519 3.79129 3.83739 3.88349 3.92959 3.9757 4.0218 4.0679 4.114 4.16011 4.20621 4.25231 4.29841 4.34452 4.39062 4.43672 4.48282 4.52892 4.57503 4.62113 4.66723 4.71333 4.75944 4.80554 4.85164 4.89774 4.94384 4.98995 5.03605 5.08215 5.12825 5.17436 5.22046 5.26656 5.31266 5.35876 5.40487 5.45097 5.49707 5.54186 5.58665 5.63144 5.67622 5.72101 5.7658 5.81059 5.85537 5.90016 5.94495 5.98974 6.03453 6.07931 6.1241 6.16889 6.21368 6.25847 6.30325 6.34804 6.39283 6.43762 6.48241 6.52719 6.57198 6.61677 6.66156 6.70634 6.75113 6.79592 6.84071 6.8855 6.93028 6.97507 7.01986 7.06465 7.10944 7.15422 7.19901 7.2438 7.28859 7.33337 7.37816 7.42295 7.46774 7.51253 7.55731 7.6021 7.64689 7.69168 7.73647 7.78125 7.82604 7.87083 7.91562 7.96041 8.00519 8.04998 8.09477 8.13956
-0.0247895 0.0208978 0.0665851 0.112272 0.15796 0.203647 0.249334 0.295022 0.340709 0.386396 0.432084 0.477771 0.523458 0.569145 0.614833 0.66052 0.706207 0.751895 0.797582 0.843269 0.888957 0.934644 0.980331 1.02602 1.07171 1.11739 1.16308 1.20877 1.25446 1.30014 1.34583 1.39152 1.4372 1.48289 1.52858 1.57427 1.61995 1.66564 1.71133 1.75702 1.8027 1.84839 1.89408 1.93976 1.98545 2.03114 2.07683 2.12251 2.1682 2.21389 2.25958 2.30526 2.35095 2.39664 2.44232 2.48801 2.5337 2.57939 2.62507 2.67076 2.71645 2.76255 2.80864 2.85474 2.90084 2.94694 2.99303 3.03913 3.08523 3.13132 3.17742 3.22352 3.26962 3.31571 3.36181 3.40791 3.45401 3.5001 3.5462 3.5923 3.6384 3.68449 3.73059 3.77669 3.82278 3.86888 3.91498 3.96108 4.00717 4.05327 4.09937 4.14547 4.19156 4.23766 4.28376 4.32985 4.37595 4.42205 4.46815 4.51424 4.56034 4.60644 4.65254 4.69863 4.74473 4.79083 4.83693 4.88302 4.92912 4.97522 5.02131 5.06741 5.11351 5.15961 5.2057 5.2518 5.2979 5.344 5.39009 5.43619 5.48229 5.52717 5.57205 5.61694 5.66182 5.7067 5.75159 5.79647 5.84135 5.88623 5.93112 5.976 6.02088 6.06577 6.11065 6.15553 6.20041 6.2453 6.29018 6.33506 6.37995 6.42483 6.46971 6.5146 6.55948 6.60436 6.64924 6.69413 6.73901 6.78389 6.82878 6.87366 6.91854 6.96342 7.00831 7.05319 7.09807 7.14296 7.18784 7.23272 7.27761 7.32249 7.36737 7.41225 7.45714 7.50202 7.5469 7.59179 7.63667 7.68155 7.72643 7.77132 7.8162 7.86108 7.90597 7.95085 7.99573 8.04061 8.0855 8.13038
-0.0328935 0.0126875 0.0582684 0.103849 0.14943 0.195011 0.240592 0.286173 0.331754 0.377335 0.422916 0.468497 0.514078 0.559658 0.605239 0.65082 0.696401 0.741982 0.787563 0.833144 0.878725 0.924306 0.969887 1.01547 1.06105 1.10663 1.15221 1.19779 1.24337 1.28895 1.33453 1.38011 1.4257 1.47128 1.51686 1.56244 1.60802 1.6536 1.69918 1.74476 1.79034 1.83592 1.8815 1.92709 1.97267 2.01825 2.06383 2.10941 2.15499 2.20057 2.24615 2.29173 2.33731 2.38289 2.42848 2.47406 2.51964 2.56522 2.6108 2.65638 2.70196 2.74805 2.79415 2.84024 2.88633 2.93242 2.97852 3.02461 3.0707 3.11679 3.16289 3.20898 3.25507 3.30116 3.34725 3.39335 3.43944 3.48553 3.53162 3.57772 3.62381 3.6699 3.71599 3.76209 3.80818 3.85427 3.90036 3.94646 3.99255 4.03864 4.08473 4.13083 4.17692 4.22301 4.2691 4.31519 4.36129 4.40738 4.45347 4.49956 4.54566 4.59175 4.63784 4.68393 4.73003 4.77612 4.82221 4.8683 4.9144 4.96049 5.00658 5.05267 5.09877 5.14486 5.19095 5.23704 5.28313 5.32923 5.37532 5.42141 5.4675 5.51248 5.55746 5.60244 5.64742 5.69239 5.73737 5.78235 5.82733 5.87231 5.91728 5.96226 6.00724 6.05222 6.0972 6.14217 6.18715 6.23213 6.27711 6.32209 6.36706 6.41204 6.45702 6.502 6.54698 6.59195 6.63693 6.68191 6.72689 6.77187 6.81684 6.86182 6.9068 6.95178 6.99676 7.04173 7.08671 7.13169 7.17667 7.22165 7.26662 7.3116 7.35658 7.40156 7.44654 7.49151 7.53649 7.58147 7.62645 7.67143 7.7164 7.76138 7.80636 7.85134 7.89632 7.94129 7.98627 8.03125 8.07623 8.1212
-0.0409974 0.0044771 0.0499516 0.0954262 0.140901 0.186375 0.23185 0.277324 0.322799 0.368273 0.413748 0.459222 0.504697 0.550171 0.595646 0.64112 0.686595 0.732069 0.777544 0.823019 0.868493 0.913968 0.959442 1.00492 1.05039 1.09587 1.14134 1.18681 1.23229 1.27776 1.32324 1.36871 1.41419 1.45966 1.50514 1.55061 1.59609 1.64156 1.68703 1.73251 1.77798 1.82346 1.86893 1.91441 1.95988 2.00536 2.05083 2.09631 2.14178 2.18725 2.23273 2.2782 2.32368 2.36915 2.41463 2.4601 2.50558 2.55105 2.59653 2.642 2.68747 2.73356 2.77965 2.82574 2.87182 2.91791 2.964 3.01009 3.05617 3.10226 3.14835 3.19444 3.24052 3.28661 3.3327 3.37879 3.42487 3.47096 3.51705 3.56314 3.60922 3.65531 3.7014 3.74749 3.79357 3.83966 3.88575 3.93183 3.97792 4.02401 4.0701 4.11618 4.16227 4.20836 4.25445 4.30053 4.34662 4.39271 4.4388 4.48488 4.53097 4.57706 4.62315 4.66923 4.71532 4.76141 4.8075 4.85358 4.89967 4.94576 4.99185 5.03793 5.08402 5.13011 5.1762 5.22228 5.26837 5.31446 5.36055 5.40663 5.45272 5.49779 5.54287 5.58794 5.63301 5.67809 5.72316 5.76823 5.8133 5.85838 5.90345 5.94852 5.9936 6.03867 6.08374 6.12882 6.17389 6.21896 6.26403 6.30911 6.35418 6.39925 6.44433 6.4894 6.53447 6.57955 6.62462 6.66969 6.71477 6.75984 6.80491 6.84998 6.89506 6.94013 6.9852 7.03028 7.07535 7.12042 7.1655 7.21057 7.25564 7.30071 7.34579 7.39086 7.43593 7.48101 7.52608 7.57115 7.61623 7.6613 7.70637 7.75144 7.79652 7.84159 7.88666 7.93174 7.97681 8.02188 8.06696 8.11203
-0.0491014 -0.00373326 0.0416349 0.087003 0.132371 0.177739 0.223107 0.268476 0.313844 0.359212 0.40458 0.449948 0.495316 0.540684 0.586053 0.631421 0.676789 0.722157 0.767525 0.812893 0.858261 0.903629 0.948998 0.994366 1.03973 1.0851 1.13047 1.17584 1.22121 1.26657 1.31194 1.35731 1.40268 1.44805 1.49342 1.53878 1.58415 1.62952 1.67489 1.72026 1.76562 1.81099 1.85636 1.90173 1.9471 1.99246 2.03783 2.0832 2.12857 2.17394 2.21931 2.26467 2.31004 2.35541 2.40078 2.44615 2.49151 2.53688 2.58225 2.62762 2.67299 2.71907 2.76515 2.81123 2.85732 2.9034 2.94948 2.99556 3.04165 3.08773 3.13381 3.17989 3.22598 3.27206 3.31814 3.36422 3.41031 3.45639 3.50247 3.54855 3.59464 3.64072 3.6868 3.73288 3.77897 3.82505 3.87113 3.91721 3.9633 4.00938 4.05546 4.10154 4.14763 4.19371 4.23979 4.28587 4.33196 4.37804 4.42412 4.4702 4.51629 4.56237 4.60845 4.65453 4.70062 4.7467 4.79278 4.83886 4.88495 4.93103 4.97711 5.02319 5.06928 5.11536 5.16144 5.20752 5.25361 5.29969 5.34577 5.39185 5.43794 5.4831 5.52827 5.57344 5.61861 5.66378 5.70894 5.75411 5.79928 5.84445 5.88962 5.93479 5.97995 6.02512 6.07029 6.11546 6.16063 6.20579 6.25096 6.29613 6.3413 6.38647 6.43163 6.4768 6.52197 6.56714 6.61231 6.65747 6.70264 6.74781 6.79298 6.83815 6.88332 6.92848 6.97365 7.01882 7.06399 7.10916 7.15432 7.19949 7.24466 7.28983 7.335 7.38016 7.42533 7.4705 7.51567 7.56084 7.606 7.65117 7.69634 7.74151 7.78668 7.83184 7.87701 7.92218 7.96735 8.01252 8.05769 8.10285
